600 600 600 600 600 600 600 600 600 600 600 600 600 600 600 600 600 600 600 600 651 648 649 644 645 644 645 645 600 600 600 600 600 600 600 600 600 600 600 658 653 648 647 647 644 643 643 642 642 641 638 638 638 637 637 636 636 635 636 635 634 634 632 632 632 632 632 631 631 632 631 631 631 631 631 631 631 632 631 631 631 632 632 632 631 632 632 632 632 634 634 635 635 636 636 636 636 636 636 636 637 637 638 638 638 638 641 642 642 643 644 645 645 647 648 650 650 651 651 651 654 654 655 655 656 600 600 600 600 600 600 600 600 600 600 600 600 600 600 600 600 600 600 600 600 600 600 600 600 600 600 600 600 600 600 600 600 600 600 600
600 600 600 600 600 600 600 600 600 600 600 600 600 600 600 600 600 600 600 600 650 648 647 644 644 644 644 600 600 600 600 660 660 660 660 660 660 660 656 656 653 647 647 645 644 643 643 641 641 639 637 637 637 637 637 636 636 635 636 635 634 632 632 632 631 631 631 631 631 631 631 631 631 631 631 631 631 631 631 631 631 631 631 632 631 631 631 631 632 632 632 634 634 635 635 635 635 635 635 636 636 637 637 638 638 638 639 641 641 641 641 643 643 644 645 649 649 650 650 650 651 654 655 655 656 658 600 600 600 600 600 600 600 600 600 600 600 600 600 600 600 600 600 600 600 600 600 600 600 600 600 600 600 600 600 600 600 600 600 600
600 600 600 600 600 600 600 600 600 600 600 600 600 600 600 600 600 600 600 644 0 645 645 643 643 644 644 0 0 661 660 661 659 660 660 660 660 659 655 655 651 647 647 645 644 642 642 639 639 638 637 637 637 637 636 636 636 635 635 635 634 632 632 631 630 631 631 630 630 631 630 631 630 630 630 630 630 630 630 630 630 630 630 630 630 630 631 630 631 631 632 632 632 634 634 634 634 635 635 636 636 636 637 637 637 637 639 639 639 641 641 642 643 645 645 648 649 650 650 650 651 653 654 655 656 600 600 600 600 600 600 600 600 600 600 600 600 600 600 600 600 600 600 600 600 600 600 600 600 600 600 600 600 600 600 600 600 600 600 600
600 600 600 600 600 600 600 600 600 600 600 600 600 658 659 659 659 600 600 600 644 644 644 643 643 643 644 600 600 600 660 661 660 660 659 659 658 656 655 654 650 647 645 645 644 643 642 641 638 637 637 637 636 636 636 635 635 634 634 632 632 631 631 631 630 631 631 631 630 631 630 630 630 630 630 630 630 629 629 629 629 629 630 630 630 630 631 630 631 631 631 632 632 632 634 634 634 634 635 635 636 636 637 637 637 637 638 638 638 639 641 641 642 644 645 647 647 649 650 650 651 653 654 655 655 660 600 600 600 600 600 600 600 600 600 600 600 600 600 600 600 600 600 600 600 600 600 600 600 600 600 600 600 600 600 600 600 600 600 600
600 600 600 600 600 600 600 600 600 600 600 600 658 658 659 656 656 651 644 644 644 644 644 643 642 642 600 600 600 600 600 600 600 600 659 658 656 655 654 653 648 647 647 645 644 643 642 639 638 637 636 636 636 636 635 635 634 634 634 632 631 631 631 631 630 630 631 630 630 630 630 630 630 629 629 629 630 630 629 629 629 630 630 630 630 630 631 630 631 631 631 632 632 632 634 634 634 634 635 635 635 636 637 637 637 637 637 637 638 639 639 641 642 644 645 648 648 648 649 650 651 651 654 654 654 658 661 600 600 600 600 600 600 600 600 600 600 600 600 600 600 600 600 600 600 600 600 600 600 600 600 600 600 600 600 600 600 600 600 600
600 600 600 600 600 600 600 600 600 600 600 600 656 658 659 658 655 651 644 644 643 644 644 643 643 643 643 600 600 600 600 600 600 658 658 656 655 654 653 650 648 647 645 645 643 643 641 638 637 637 636 636 636 636 635 635 634 634 634 632 631 631 630 630 630 630 630 630 630 630 630 629 630 629 629 629 630 629 629 629 629 630 630 630 630 630 631 631 630 631 631 632 632 632 632 632 634 634 634 635 635 636 636 636 636 637 636 636 637 638 639 639 642 643 644 647 647 648 648 649 651 651 653 653 653 656 659 600 600 600 600 600 600 600 600 600 600 600 600 600 600 600 600 600 600 600 600 600 600 600 600 600 600 600 600 600 600 600 600 600
600 600 600 600 600 600 600 600 600 600 600 600 656 658 658 656 655 655 643 643 643 643 643 643 643 643 643 600 600 600 600 600 600 656 656 655 654 653 651 650 648 645 645 645 643 642 639 638 637 637 636 636 636 636 635 635 632 632 632 632 630 630 630 630 630 629 630 630 630 630 630 629 630 629 628 629 629 629 629 629 629 630 630 630 630 630 630 630 630 630 631 631 632 632 632 632 632 632 634 635 634 635 636 635 636 636 636 636 636 637 638 639 641 642 643 647 647 647 647 649 650 650 651 653 653 656 658 661 600 600 600 600 600 600 600 600 600 600 600 600 600 600 600 600 600 600 600 600 600 600 600 600 600 600 600 600 600 600 600 600
600 600 600 600 600 600 680 600 600 600 600 654 654 656 656 656 655 644 644 643 643 643 643 642 643 642 643 600 600 600 600 600 600 655 655 654 653 651 651 649 648 645 645 644 642 641 638 637 637 636 636 636 635 635 635 632 632 632 632 631 630 630 630 630 630 629 629 630 630 629 629 628 629 628 628 629 629 629 628 629 629 630 630 630 630 630 630 630 630 630 631 631 632 631 632 632 632 632 632 634 634 634 635 634 635 635 636 636 636 637 638 638 641 642 642 645 645 645 647 648 650 650 651 653 653 656 658 661 663 0 665 600 600 600 600 600 600 600 600 600 600 600 600 600 600 600 600 600 600 600 600 600 600 600 600 600 600 600 600 600
600 600 600 600 600 678 678 680 678 678 0 654 654 656 656 656 656 644 644 642 643 642 642 642 643 600 600 600 600 600 600 658 655 655 654 653 653 651 651 650 649 647 645 644 642 641 638 637 636 636 636 635 635 635 634 632 632 631 631 631 630 630 630 630 630 630 630 630 629 629 628 628 628 628 628 628 629 628 628 628 629 629 629 629 629 629 629 630 629 629 630 631 631 631 632 631 632 632 632 634 634 634 634 634 635 635 636 636 636 637 637 638 639 642 642 645 645 645 647 648 650 651 651 653 654 656 659 661 663 665 667 668 669 672 676 600 600 600 600 600 600 600 600 600 600 600 600 600 600 600 600 600 600 600 600 600 600 600 600 600
600 600 600 600 600 678 678 678 677 677 654 654 655 656 658 656 643 643 643 642 642 642 642 642 642 600 600 600 600 600 656 656 655 654 653 653 651 651 650 648 647 644 643 642 641 641 638 637 636 636 636 635 634 634 634 632 631 631 631 630 629 629 630 630 630 629 629 629 630 629 628 628 628 628 628 628 628 628 628 628 628 629 629 629 629 629 629 629 629 629 629 630 631 631 631 631 632 632 632 632 632 632 632 632 635 635 636 636 636 637 637 638 639 641 642 645 645 645 647 647 649 650 651 654 654 656 658 661 663 665 667 668 669 674 674 676 600 600 600 600 600 600 600 600 600 600 600 600 600 600 600 600 600 600 600 600 600 600 600 600
600 600 600 600 678 677 678 677 677 677 655 655 655 656 656 656 643 643 643 642 642 642 642 642 642 600 600 600 600 600 656 656 654 654 651 651 649 648 648 647 647 643 643 642 641 639 638 637 636 635 635 634 634 634 632 631 631 630 630 630 629 629 629 629 629 629 629 629 629 629 628 628 628 628 628 628 628 628 628 628 628 628 628 629 630 629 629 630 630 629 629 629 630 630 631 630 631 632 632 632 632 632 632 632 634 634 635 636 636 636 637 638 638 641 641 644 644 645 645 647 648 649 650 653 654 656 656 661 661 664 665 667 668 672 674 676 676 677 600 600 600 600 600 684 600 600 600 600 600 600 600 600 600 600 600 600 600 600 600 600
600 600 600 600 600 677 678 677 677 677 656 656 658 658 656 656 642 642 642 641 642 641 641 641 642 600 600 600 656 0 656 656 654 653 651 650 648 648 648 647 645 642 642 641 639 638 637 637 636 635 635 634 634 632 631 631 630 630 629 629 629 629 629 629 629 628 629 628 629 628 628 627 628 627 627 628 628 628 628 628 629 628 628 628 628 628 628 628 628 629 629 629 629 630 630 630 631 631 632 632 632 632 632 634 634 634 635 635 635 636 637 638 638 639 639 642 643 643 644 645 648 649 650 653 653 655 656 659 661 664 665 667 668 673 674 676 676 677 677 676 676 678 680 684 600 600 600 600 600 600 600 600 600 600 600 600 600 600 600 600
600 600 600 678 677 677 677 677 677 677 649 649 649 649 650 644 642 641 642 638 639 639 639 641 642 600 600 600 600 656 656 656 654 653 650 649 648 647 648 647 645 642 641 641 639 638 637 636 635 634 634 632 632 631 630 630 629 628 628 628 628 628 628 628 628 628 628 628 628 627 627 627 627 627 627 627 627 627 627 628 628 628 628 628 628 628 628 628 628 629 629 629 629 629 630 630 629 631 632 632 632 632 632 634 634 634 635 635 636 636 637 638 638 638 639 641 642 643 643 645 647 648 650 651 653 656 656 660 661 664 665 667 668 673 674 676 676 677 677 676 676 677 678 680 680 600 600 600 600 600 600 600 600 600 600 600 600 600 600 600
600 600 676 676 674 674 676 674 674 674 674 648 648 648 647 644 642 641 641 639 638 638 638 639 639 639 0 658 656 656 655 655 653 653 651 649 648 647 648 647 645 642 641 639 638 638 637 636 635 634 632 632 632 631 630 630 629 628 628 628 628 628 628 628 628 628 628 627 627 627 627 627 627 627 627 627 627 627 628 628 628 628 628 628 628 628 628 628 628 629 629 629 629 629 630 630 629 631 631 632 632 632 632 634 635 634 635 635 636 636 637 637 638 638 639 641 642 642 643 644 644 647 650 650 651 658 656 660 661 664 665 667 668 672 674 676 676 677 677 676 676 677 677 677 600 600 600 600 600 600 600 600 600 600 600 600 600 600 600 600
600 600 676 676 674 674 674 674 674 674 674 648 648 648 647 644 642 641 641 639 638 638 638 639 641 641 639 0 658 658 656 655 654 653 651 650 648 647 648 647 645 641 641 639 638 637 636 636 635 634 632 632 632 631 630 630 629 628 628 628 628 628 628 628 628 627 627 627 627 627 625 627 627 627 627 627 627 627 627 627 628 628 627 627 628 627 628 628 628 628 629 629 629 629 629 630 630 631 631 631 632 632 632 634 635 635 635 635 636 636 637 637 637 638 639 639 641 642 642 642 642 647 650 650 651 656 658 659 661 663 664 667 668 670 673 676 676 677 677 676 676 677 676 676 676 600 600 600 600 600 600 600 600 600 600 600 600 600 600 600
600 600 674 674 673 673 674 674 674 674 653 649 649 648 647 644 642 641 641 638 638 638 638 639 641 639 639 656 656 658 656 655 653 653 650 649 648 647 647 647 645 641 639 638 637 636 636 635 635 632 632 632 631 630 630 629 628 628 628 628 627 627 627 627 627 627 627 627 625 625 625 625 627 625 625 627 627 627 627 627 628 628 627 627 627 627 627 627 628 628 629 629 629 629 629 630 630 631 631 631 632 632 632 634 634 634 635 635 636 636 636 637 637 637 638 639 641 641 642 642 642 645 645 651 651 655 656 659 661 663 664 667 668 670 672 674 676 676 677 676 676 676 677 676 676 674 676 600 600 600 600 600 600 600 600 600 600 600 600 600
600 600 674 674 673 673 674 674 674 674 653 653 649 649 648 643 642 641 641 639 638 638 638 639 639 639 656 656 658 658 656 655 653 651 650 649 648 647 647 645 643 639 638 637 636 636 634 634 634 632 632 631 630 630 629 628 628 628 627 627 627 627 627 627 625 625 625 625 624 624 625 625 625 625 625 625 625 627 627 627 627 627 627 627 627 627 627 627 627 628 629 629 629 629 629 630 629 631 631 631 632 631 632 632 632 634 634 635 635 636 636 636 637 637 638 639 641 641 642 642 642 644 645 650 650 654 656 658 659 661 663 667 668 670 672 673 676 676 676 674 676 676 676 674 676 676 676 600 600 600 600 600 600 600 600 600 600 600 600 600
600 674 674 674 673 673 674 674 674 658 658 653 650 649 647 643 642 641 641 639 638 638 638 638 639 639 0 656 658 658 656 655 653 651 650 649 648 647 647 645 643 638 637 637 636 635 634 634 632 631 631 630 630 630 629 628 628 627 627 627 627 627 627 627 625 625 627 625 624 624 625 625 625 625 625 625 625 625 627 627 627 627 627 627 627 627 627 627 627 628 629 629 629 629 629 629 629 630 630 630 631 631 631 632 632 632 634 634 635 636 636 636 636 637 638 638 641 641 642 642 642 643 645 648 650 653 655 658 659 661 663 667 667 670 672 673 676 676 676 674 674 674 674 674 676 676 676 677 600 600 600 600 600 600 600 600 600 600 600 600
600 674 674 673 673 673 673 673 673 651 651 651 649 648 647 644 642 642 641 641 639 639 638 639 641 641 656 656 658 658 656 654 653 651 649 648 648 647 645 644 643 639 638 637 636 635 634 634 632 631 631 630 630 629 628 628 628 627 627 627 627 627 625 625 624 624 624 623 623 623 623 625 625 625 625 625 625 625 625 627 627 627 627 627 627 627 627 627 627 628 628 629 629 629 629 629 629 629 629 629 629 630 631 631 631 632 632 634 634 635 635 635 636 636 637 638 641 641 642 642 643 644 645 647 648 651 654 655 656 659 663 667 667 670 672 673 674 676 676 674 674 674 674 674 674 674 676 676 677 600 600 600 600 600 600 600 600 600 600 600
674 674 674 673 672 672 672 661 661 658 650 650 649 648 647 644 643 642 642 641 639 641 638 641 642 0 0 658 658 658 656 654 651 650 649 648 647 645 645 644 643 639 638 636 634 632 632 632 631 630 630 630 629 629 628 628 628 627 627 627 627 625 625 623 623 623 623 623 623 623 623 624 624 624 624 624 624 624 624 625 627 625 625 627 627 627 627 627 627 628 628 629 629 629 629 629 629 630 629 629 629 629 629 630 630 631 632 632 634 634 634 634 636 636 637 638 641 641 641 642 642 643 644 647 648 651 653 655 656 658 661 667 667 670 672 673 674 676 676 674 674 674 674 674 674 676 677 677 677 677 600 600 600 600 600 600 600 685 685 685
674 676 676 673 672 672 661 661 661 658 650 650 648 648 647 645 643 642 642 642 641 642 642 643 643 643 0 0 656 656 655 654 651 650 648 647 647 645 645 644 642 638 637 635 632 632 631 631 630 630 630 629 628 628 627 627 627 627 627 625 625 625 623 622 622 622 622 622 622 623 622 623 623 624 624 623 623 623 624 624 625 625 625 625 625 625 625 627 627 628 628 628 628 629 629 629 629 629 629 628 628 628 628 628 628 628 629 631 631 632 632 634 635 635 636 637 638 639 641 641 642 643 644 645 648 651 653 654 655 656 658 661 663 670 672 673 674 674 676 674 674 674 674 676 676 677 677 677 677 677 600 600 600 685 685 0 0 685 685 685
674 676 676 673 673 661 661 660 660 658 656 651 649 648 647 644 643 643 642 643 642 643 643 643 643 656 0 0 656 656 655 653 650 649 647 645 645 643 644 643 641 638 636 635 632 632 631 630 630 630 629 628 627 627 625 625 627 624 624 623 623 622 620 620 620 621 620 620 622 622 621 622 622 622 623 622 623 623 623 624 624 624 624 624 624 625 624 625 625 627 627 628 628 628 628 629 628 628 628 628 628 628 628 628 628 628 629 630 631 632 632 634 635 635 636 637 638 639 641 641 642 643 644 645 647 650 653 654 655 656 658 659 663 670 672 673 674 674 676 674 674 674 676 677 677 677 678 678 678 678 678 0 0 685 685 685 685 685 600 600
676 676 676 674 674 660 660 660 660 658 658 653 649 648 647 644 643 643 642 643 642 643 643 600 600 600 600 600 656 654 654 653 650 649 648 645 644 643 643 642 641 638 638 638 630 630 630 630 629 628 628 627 627 625 625 624 624 623 623 623 622 621 620 619 619 621 620 620 621 622 622 621 621 622 622 622 622 623 623 623 623 623 624 624 624 624 624 624 625 627 627 627 627 628 628 628 628 628 628 628 628 628 628 628 628 628 628 629 630 631 632 632 635 635 636 636 638 639 639 641 642 643 645 645 647 650 651 653 654 655 656 659 663 670 673 673 674 676 676 674 676 676 677 678 678 678 680 678 680 680 680 685 685 685 685 685 686 686 688 600
676 676 676 673 661 661 660 660 659 659 658 655 649 647 647 645 643 643 643 643 643 643 643 600 600 600 600 600 656 655 654 651 649 649 647 644 643 642 643 642 641 639 639 600 600 600 629 629 628 628 628 627 627 627 625 624 624 623 623 623 622 621 620 619 619 619 620 620 620 622 622 621 621 621 621 622 622 623 623 623 624 624 624 624 624 624 624 624 625 627 627 627 627 627 628 628 628 628 628 628 628 627 627 627 627 628 628 629 629 630 631 632 634 634 635 636 637 638 639 641 642 643 644 645 647 650 651 653 654 655 656 656 664 669 672 672 674 676 676 674 676 676 677 680 680 680 680 680 681 681 682 681 685 685 685 686 686 688 689 689
674 674 674 673 673 660 660 660 660 659 658 653 649 647 645 644 643 643 642 643 643 643 643 600 600 600 600 600 658 655 654 651 650 649 648 644 643 642 642 641 641 0 630 630 630 630 629 629 628 628 628 627 627 625 625 624 624 624 623 623 623 622 620 620 620 620 620 620 620 621 620 621 621 621 621 621 622 622 623 623 623 624 624 624 624 624 624 624 624 625 627 625 625 627 627 627 627 628 628 628 628 627 627 627 627 627 628 628 628 629 629 631 632 632 634 635 636 638 638 639 641 642 644 645 647 649 650 653 654 655 656 659 664 669 670 672 674 676 676 674 676 676 677 680 680 680 681 681 682 682 684 682 685 685 685 686 688 688 689 691
674 674 674 672 673 673 659 659 659 658 656 653 649 648 645 645 643 643 642 643 642 643 643 600 600 600 600 600 656 654 653 651 649 649 648 644 642 642 642 641 641 641 0 630 630 630 629 629 629 628 628 627 627 625 625 625 624 623 623 623 623 622 621 620 620 620 621 620 621 621 621 621 621 621 621 621 622 622 623 623 623 624 624 624 624 624 624 624 624 624 625 625 625 625 627 627 627 627 628 628 628 627 627 627 627 627 627 627 628 628 629 631 632 632 634 635 635 637 638 639 641 642 643 645 645 648 650 651 653 655 656 659 663 668 670 672 674 676 676 674 676 677 678 681 681 681 682 682 682 684 684 682 685 685 686 689 689 691 691 692
674 674 674 672 672 672 659 659 659 658 655 653 651 648 647 644 643 643 642 642 642 642 642 0 0 660 660 659 658 654 653 651 650 649 648 645 642 642 641 641 639 639 0 630 630 630 630 629 629 628 628 627 627 627 625 625 624 624 623 623 623 621 621 622 622 622 621 620 621 621 621 621 621 621 621 621 622 622 623 623 623 623 624 624 624 624 624 624 624 624 625 625 625 625 627 627 627 627 627 628 627 627 627 627 627 627 627 627 628 628 628 629 631 631 632 634 634 637 638 639 641 642 643 644 645 648 650 651 653 655 656 659 661 667 670 673 674 676 676 674 674 674 676 680 681 681 682 682 682 684 684 682 685 685 686 689 691 691 691 692
674 674 674 673 672 672 659 659 659 656 656 654 653 649 645 644 643 642 642 642 642 642 642 0 0 660 660 659 658 654 653 651 649 648 647 644 642 641 641 638 638 638 0 630 630 630 630 629 629 628 628 628 627 627 625 625 624 624 624 623 623 622 621 621 621 621 621 621 621 621 621 621 621 621 621 622 622 622 622 623 623 623 624 624 624 624 624 624 624 625 625 625 625 625 627 627 627 627 627 628 627 627 627 627 627 627 627 627 628 628 628 628 629 630 631 634 634 636 636 638 641 642 642 644 645 648 649 650 651 654 656 658 661 667 668 670 674 676 676 674 676 674 676 680 681 681 682 682 684 684 684 684 685 688 688 691 691 691 692 692
674 674 674 673 673 664 660 660 660 658 655 653 653 649 647 644 643 642 642 642 642 642 642 0 660 660 660 659 658 655 654 653 649 648 645 644 642 639 639 639 637 635 632 631 631 630 630 629 629 628 628 628 627 627 625 625 624 624 624 623 623 622 622 622 622 622 622 621 621 622 621 621 621 621 621 622 622 622 622 622 623 623 623 624 624 624 624 624 624 625 625 625 625 625 627 627 627 627 627 628 627 627 627 627 627 627 628 627 628 628 628 628 629 629 631 632 634 636 636 637 638 641 642 643 644 647 648 650 650 653 656 658 661 667 668 670 674 676 676 676 674 674 676 680 678 678 682 684 682 684 684 684 686 688 688 691 691 691 692 692
674 674 674 673 672 664 661 660 660 656 654 653 653 650 645 644 643 642 642 642 641 641 0 661 661 660 660 659 658 654 653 653 650 648 645 643 641 638 637 637 637 635 632 632 631 630 630 629 629 628 628 628 627 627 625 625 624 624 624 624 623 623 623 623 622 622 622 622 622 622 622 622 621 621 621 622 622 622 622 622 623 623 623 624 624 624 624 624 624 625 625 625 625 625 625 625 627 627 627 627 627 627 627 627 627 627 628 628 628 628 628 628 629 629 629 634 634 635 636 636 637 638 642 643 643 647 647 648 650 653 656 658 661 667 668 670 674 676 677 676 676 674 676 677 678 678 680 682 682 684 684 685 686 688 689 691 691 692 692 600
674 674 674 673 672 0 660 660 660 658 654 653 653 650 645 644 643 642 642 642 642 641 0 661 660 660 659 658 656 654 653 653 650 648 645 636 636 636 636 636 636 635 632 632 631 630 630 629 629 629 628 628 627 627 625 625 625 625 625 625 624 623 623 623 623 623 622 622 622 622 622 622 622 622 622 622 622 622 622 622 623 623 623 624 624 624 624 624 624 624 624 625 625 625 625 625 627 627 627 627 627 627 627 628 628 628 628 628 628 628 628 628 629 632 632 634 634 635 636 637 637 639 641 642 642 647 647 648 649 653 655 658 661 665 668 672 676 676 677 676 676 676 676 677 678 678 680 681 682 684 684 684 686 688 689 692 691 600 600 600
600 674 673 672 0 0 660 660 659 656 654 653 653 648 645 644 643 642 642 642 642 0 660 660 660 660 659 658 655 654 653 651 649 648 639 638 637 637 637 637 636 636 635 635 632 631 631 629 629 629 629 629 628 628 628 627 627 627 627 627 627 625 625 624 624 623 623 623 623 622 623 622 622 622 622 623 622 622 622 622 623 623 624 624 624 624 624 624 625 624 624 625 625 625 625 627 627 627 627 628 627 628 628 628 628 628 628 628 628 628 628 628 629 632 632 634 635 636 636 637 637 639 641 642 642 647 648 649 650 653 655 656 659 664 668 673 674 676 677 676 677 676 677 678 680 680 680 681 681 682 682 685 688 691 691 695 600 600 600 600
600 600 673 600 600 600 600 600 659 659 656 654 654 648 647 645 644 643 643 643 642 0 661 661 659 659 656 655 654 653 653 651 649 638 638 638 636 637 636 636 636 636 635 635 632 632 632 629 629 629 629 629 628 628 628 628 627 627 627 628 627 627 627 625 625 624 624 624 623 623 623 623 623 623 623 623 623 622 623 622 623 623 624 624 624 624 624 624 624 624 624 625 625 625 625 625 627 627 627 627 627 627 627 628 628 628 628 628 629 629 630 631 634 632 634 635 636 636 637 637 638 639 639 641 642 645 648 650 651 653 655 656 659 664 670 673 674 676 677 676 677 676 676 677 680 680 680 681 682 681 684 685 686 688 689 695 695 696 600 600
600 600 600 600 600 600 600 600 600 658 656 654 655 648 647 645 645 643 643 600 600 600 660 660 659 658 656 655 654 653 651 651 647 639 639 638 637 637 637 637 637 636 635 635 634 632 632 629 630 629 629 629 629 629 628 628 627 628 627 628 627 627 627 627 625 625 624 624 623 623 623 623 623 623 623 623 623 623 623 623 623 623 624 624 624 624 624 624 625 624 625 625 625 625 625 627 627 627 627 627 628 628 628 628 628 628 628 628 629 631 631 632 635 635 635 635 636 637 637 638 638 639 641 641 642 647 648 650 651 653 655 656 659 665 669 672 674 676 676 676 676 677 677 678 680 680 680 681 682 681 684 685 686 688 691 695 696 696 698 600
600 600 600 600 600 600 600 600 600 659 656 655 655 649 648 647 649 600 600 600 600 600 660 660 659 659 656 655 654 653 651 650 645 641 639 639 638 638 637 637 637 636 636 635 635 632 630 630 630 630 630 629 629 629 628 628 628 628 628 628 628 628 628 628 627 627 625 625 624 624 624 624 623 624 624 624 624 624 624 623 623 623 624 624 623 624 624 624 625 624 625 625 625 625 625 627 627 628 628 628 628 628 628 628 628 628 628 628 630 631 631 632 634 635 635 635 636 637 637 637 638 639 641 641 645 648 648 650 651 653 654 655 658 661 669 672 674 674 676 676 676 676 676 677 678 678 680 681 680 681 681 682 686 688 689 695 696 696 696 600
600 600 600 600 600 600 600 600 600 659 658 656 656 651 650 649 600 600 600 600 600 600 660 660 659 659 656 654 654 653 651 650 644 641 641 639 639 638 638 638 637 636 635 635 634 632 631 630 630 631 631 630 629 629 628 628 628 628 628 628 628 628 628 628 628 628 627 627 625 625 624 624 624 624 624 624 624 624 624 623 624 624 624 624 624 624 625 625 625 625 625 627 625 627 627 627 627 628 629 629 629 629 629 629 628 628 628 628 631 631 632 634 635 635 636 636 636 637 637 638 641 639 639 645 645 647 648 650 651 653 654 656 658 661 669 672 674 676 676 676 676 677 677 677 678 678 680 680 680 680 681 682 689 691 695 695 695 695 696 600
600 600 600 600 600 600 600 600 659 660 658 656 656 653 653 651 651 600 600 600 600 600 660 660 658 658 656 654 654 653 651 650 643 641 641 641 639 639 639 638 637 636 635 635 634 632 631 631 631 631 631 630 630 630 629 628 628 628 628 628 628 628 628 628 628 628 627 628 627 627 625 625 625 625 625 625 625 625 624 624 624 624 624 624 624 625 625 627 627 625 627 627 627 627 627 627 628 628 630 630 630 629 629 629 629 628 628 628 631 632 632 635 635 635 636 636 637 637 638 641 642 641 642 644 645 647 648 650 651 653 655 656 659 660 669 673 674 676 676 676 676 677 677 677 678 678 678 680 681 680 681 682 691 692 695 695 695 695 696 696
600 600 600 600 600 600 665 661 661 661 659 656 656 653 653 653 651 600 600 600 600 661 660 660 658 658 656 654 654 651 651 649 643 642 641 641 641 639 639 639 638 636 635 635 634 634 632 631 631 631 631 630 630 630 629 628 628 628 628 628 628 628 629 629 628 628 628 628 628 627 627 627 627 627 625 625 625 625 625 624 625 625 625 625 625 627 627 627 627 627 628 628 628 628 628 628 628 628 630 630 630 630 629 629 629 629 629 629 630 631 634 635 635 636 636 636 638 639 639 641 642 641 642 644 645 647 648 650 651 653 655 656 659 660 669 672 674 676 676 676 676 677 677 677 677 678 678 680 681 680 681 682 691 692 695 695 695 695 696 698
600 600 600 600 600 600 665 661 661 661 659 658 656 654 654 654 653 600 600 600 600 660 660 659 658 658 656 654 653 651 650 648 643 642 641 641 641 639 639 639 638 635 634 634 634 632 632 631 631 631 631 630 630 629 629 628 628 628 628 628 628 628 628 628 628 628 628 628 628 627 627 627 628 628 627 627 627 627 627 627 625 625 627 627 627 627 627 628 628 628 628 628 628 628 628 628 629 629 631 631 631 631 631 630 630 631 630 631 631 632 634 635 635 636 636 637 638 639 641 642 642 643 643 644 645 647 648 650 651 653 654 658 660 668 668 670 674 676 676 676 676 677 677 677 677 677 678 678 680 681 681 682 689 691 692 693 693 693 696 696
600 600 600 600 600 665 665 661 661 661 659 656 656 654 654 655 654 600 600 600 600 661 660 659 658 658 656 654 651 650 649 648 643 642 642 641 641 641 639 639 637 635 634 634 634 632 632 631 631 631 631 630 630 629 628 628 628 628 628 628 628 628 628 628 628 628 628 628 628 627 627 628 628 628 628 628 628 628 628 628 627 627 627 627 627 628 628 628 629 629 629 629 629 629 629 629 629 630 631 631 631 631 631 631 631 631 631 632 632 634 635 636 636 637 637 637 637 639 641 643 643 643 644 644 645 647 647 649 650 651 651 660 660 660 672 672 674 676 676 677 677 677 678 677 678 678 678 678 680 680 681 682 689 691 691 692 692 692 692 600
600 600 600 600 600 667 667 665 663 663 659 656 655 654 654 654 654 600 600 600 600 660 660 659 658 656 656 654 651 649 649 648 643 642 642 641 641 641 639 639 638 635 634 634 632 632 632 631 631 631 630 630 629 628 628 627 627 627 627 627 627 628 628 628 628 628 628 628 628 628 628 629 629 629 629 629 629 629 629 629 629 629 629 628 628 628 628 628 629 629 630 630 630 630 630 630 631 631 631 631 632 632 632 632 632 632 632 634 634 634 635 636 637 637 637 637 639 639 641 642 642 642 644 645 645 647 647 649 650 651 654 659 659 660 672 672 676 676 677 677 677 678 680 677 677 677 677 678 680 680 681 682 689 691 691 692 692 692 692 600
600 600 600 600 667 665 667 665 663 664 664 658 655 654 654 655 600 600 600 600 600 660 659 659 656 656 655 653 650 649 649 648 643 643 642 641 641 641 641 639 638 635 634 634 632 632 632 631 631 630 630 629 629 628 628 627 627 627 627 627 627 628 628 628 628 628 628 628 628 628 628 629 630 630 629 630 630 630 630 629 630 630 630 629 628 629 629 629 629 630 631 631 630 630 631 631 631 631 631 632 632 632 632 632 632 634 634 634 635 635 636 636 637 637 637 637 638 641 641 643 643 643 644 645 644 647 647 649 651 653 655 658 659 660 673 673 676 677 678 678 680 681 682 678 678 678 677 678 680 680 681 682 689 691 691 692 692 692 692 692
600 600 600 600 667 667 667 667 665 663 663 659 656 654 654 656 600 600 600 600 600 600 659 656 655 655 655 653 649 649 649 648 644 643 642 641 641 639 639 638 636 635 635 634 632 632 632 631 630 630 629 629 629 628 628 627 627 627 627 627 627 627 627 628 628 628 628 628 628 628 629 630 630 630 630 630 630 630 630 630 630 630 630 629 629 629 629 629 629 631 631 631 631 631 631 631 632 632 632 632 632 632 632 632 634 634 634 635 635 635 636 636 636 637 637 637 639 641 642 643 643 643 644 644 645 647 648 649 651 653 654 655 658 660 672 672 676 677 678 680 681 682 684 684 680 680 678 680 680 681 681 682 688 691 691 691 692 692 692 600
600 600 600 668 667 667 667 667 664 664 663 663 655 654 655 656 0 0 665 665 0 659 659 656 656 656 655 654 650 649 649 648 644 643 642 641 641 639 638 637 637 636 635 635 634 632 632 631 630 630 630 629 628 628 628 627 627 627 627 627 627 627 628 628 628 628 628 628 628 628 629 630 631 631 631 630 631 630 631 631 631 630 630 629 629 629 629 629 629 631 632 632 632 632 632 632 632 632 632 632 632 634 634 634 634 634 634 635 635 635 636 636 636 637 637 637 639 641 642 643 643 643 644 644 645 645 648 649 650 651 654 655 658 658 672 672 674 677 680 680 681 682 684 684 681 681 680 680 681 681 681 682 686 689 689 691 691 691 692 600
600 600 600 668 668 668 668 668 664 664 663 663 664 600 600 600 667 667 665 665 661 661 659 656 656 656 655 654 649 649 649 648 645 643 642 641 641 639 638 637 637 636 635 635 634 632 631 631 630 630 629 629 629 628 628 628 627 627 628 627 628 628 628 628 628 629 629 628 628 629 631 631 631 631 631 631 631 631 631 631 631 630 630 629 629 630 629 630 631 631 632 632 634 634 635 636 634 634 632 632 632 634 634 634 634 634 634 635 635 635 635 635 636 636 636 637 638 639 641 642 643 643 643 643 644 647 649 650 650 653 654 656 659 661 673 673 674 677 678 680 681 684 684 685 684 682 680 680 680 681 681 682 689 689 691 691 692 692 600 600
600 600 600 668 668 668 667 668 665 664 663 664 600 600 600 600 667 667 667 665 661 661 659 655 655 654 654 653 650 650 650 649 645 645 643 642 641 639 638 637 637 636 636 635 635 632 632 631 631 630 630 629 629 629 629 629 628 628 628 628 628 628 628 629 628 629 629 629 629 629 631 632 632 632 632 632 632 631 631 631 631 630 630 630 629 630 630 630 631 632 634 634 635 635 636 636 635 635 634 634 634 634 634 634 635 635 634 635 635 635 635 635 636 636 636 637 638 638 641 642 643 644 644 644 644 645 650 650 651 653 655 656 658 663 673 673 676 677 678 680 681 684 685 685 684 684 680 678 680 680 681 682 684 691 691 691 692 692 600 600
600 600 600 600 668 668 668 668 667 664 663 600 600 600 600 667 668 667 667 665 661 661 658 655 654 654 653 653 651 650 650 649 647 645 643 642 641 641 639 638 637 636 636 635 635 632 632 632 632 632 632 632 636 637 636 631 630 630 630 629 631 629 630 630 629 630 629 629 630 631 632 632 634 632 632 632 632 632 631 631 631 630 630 630 630 630 631 631 632 632 634 635 636 636 636 636 636 636 635 634 634 634 634 635 635 635 635 635 635 635 635 635 635 636 636 636 637 638 641 642 643 644 644 644 645 647 650 651 653 654 655 655 658 661 673 673 676 677 677 680 681 684 685 686 685 685 678 678 678 680 680 682 685 691 691 691 600 600 600 600
600 600 600 669 668 668 668 668 667 665 600 600 600 600 667 667 667 667 667 665 661 661 658 655 654 653 653 651 651 650 650 649 647 645 644 643 642 641 641 638 638 637 636 636 636 635 634 634 635 634 634 634 635 636 635 634 634 632 632 634 632 632 632 631 631 631 631 631 631 632 634 634 635 634 634 634 634 632 632 631 631 630 630 630 630 630 631 631 632 634 635 635 636 636 636 637 636 636 635 635 634 635 635 635 635 635 635 635 635 634 634 634 634 635 635 636 637 638 641 642 642 643 644 644 645 647 651 651 654 655 655 656 658 660 672 673 674 678 678 680 681 685 686 689 689 689 689 680 680 681 681 685 689 691 692 691 600 600 600 600
600 600 672 669 669 668 668 668 668 667 667 600 600 600 667 667 667 665 665 664 661 661 658 655 654 653 653 653 651 650 649 649 647 645 645 644 643 642 641 638 638 637 637 636 636 635 635 635 635 635 635 635 636 636 635 635 635 634 634 634 635 635 635 635 635 635 634 634 634 634 634 635 635 635 635 635 634 634 632 631 631 631 631 630 631 631 631 631 632 634 635 635 636 636 636 637 636 636 635 635 635 636 635 636 636 636 636 635 634 634 634 634 635 635 636 636 637 638 641 642 643 644 644 644 645 647 650 651 653 654 655 658 659 665 672 676 676 676 680 680 681 682 685 691 691 691 0 680 680 600 600 600 600 600 600 600 600 600 600 600
600 600 672 670 670 669 668 668 668 668 600 600 600 600 668 668 667 665 665 663 661 661 658 655 654 653 653 651 650 650 649 649 647 647 645 645 644 642 641 639 638 637 637 637 636 635 635 635 635 635 635 635 636 636 635 635 635 635 635 635 635 635 636 636 636 636 636 636 636 636 636 635 635 635 635 635 634 634 632 631 631 631 631 631 631 631 631 631 632 634 634 635 636 636 637 637 637 637 637 636 636 637 636 636 636 636 636 636 635 634 634 634 635 636 636 636 637 638 639 641 642 644 645 644 645 647 649 651 654 655 656 659 661 665 672 674 677 677 678 680 681 682 684 691 691 691 600 600 600 600 600 600 600 600 600 600 600 600 600 600
600 600 673 672 672 670 670 670 600 600 600 674 0 674 669 668 668 665 665 664 661 661 656 654 653 651 651 651 650 649 649 648 647 647 645 645 644 642 642 641 641 639 637 637 637 635 635 635 635 635 636 635 636 635 635 635 635 634 635 635 636 635 636 636 636 636 637 637 636 636 636 636 636 635 635 635 634 634 632 631 631 631 631 631 631 631 631 632 632 632 634 635 636 637 637 638 637 638 637 637 637 638 637 638 637 637 637 641 636 635 634 635 635 636 636 637 638 638 639 641 642 644 645 645 647 647 649 651 653 655 656 659 661 665 672 674 676 677 678 680 680 681 684 691 691 691 600 600 600 600 600 600 600 600 600 600 600 600 600 600
600 600 600 600 600 676 676 677 677 677 677 677 674 672 669 669 668 665 665 663 660 660 655 654 653 651 651 650 649 649 648 648 645 645 645 645 643 642 642 642 641 641 638 638 637 636 636 635 635 635 635 635 635 635 635 635 635 634 635 635 636 636 636 636 637 637 637 637 637 637 636 636 636 635 635 634 634 634 632 631 631 631 631 631 631 631 631 631 632 632 635 636 636 637 637 638 638 638 638 637 637 638 639 639 641 641 641 642 642 642 636 636 637 637 637 637 638 639 641 641 644 645 645 645 647 647 648 650 651 654 656 661 663 667 672 673 676 677 677 678 680 682 684 691 691 691 600 600 600 600 600 600 600 600 600 600 600 600 600 600
600 600 600 600 677 677 677 677 678 677 677 677 674 672 670 669 668 667 665 664 660 660 654 654 651 651 651 650 649 648 648 648 645 645 644 644 643 642 642 642 641 641 638 638 637 636 636 635 634 635 635 634 634 634 635 634 634 634 635 635 636 636 636 636 637 637 637 637 637 637 636 636 636 636 636 635 634 634 632 631 631 630 631 630 631 631 631 631 632 634 635 636 637 637 638 639 639 639 639 638 639 641 641 639 641 641 641 642 641 639 639 638 638 638 637 637 639 639 641 641 644 645 645 645 647 647 649 651 651 658 658 661 661 665 670 673 676 677 678 680 681 682 685 688 691 691 692 600 600 600 600 600 600 600 600 600 600 600 600 600
600 600 600 678 678 678 678 678 678 678 678 677 674 673 670 670 668 668 667 664 664 658 654 654 651 651 651 650 649 648 648 647 645 645 644 644 643 642 642 641 641 641 638 638 637 636 636 635 634 634 635 634 635 634 635 635 635 635 635 635 636 636 636 636 637 637 637 637 637 637 636 636 636 636 636 635 634 634 632 631 630 630 631 630 630 630 631 631 632 632 634 636 637 637 638 639 639 641 641 641 641 641 642 642 642 642 642 642 643 644 642 639 639 639 639 639 639 641 641 642 644 645 645 645 647 647 648 648 660 660 661 663 663 665 670 673 676 677 678 680 681 684 685 688 689 689 689 689 600 600 600 600 600 600 600 600 600 600 600 600
600 600 678 678 678 678 678 678 678 678 678 677 676 674 672 672 669 668 665 663 663 658 654 653 651 651 650 649 649 648 648 647 645 645 644 643 642 642 641 641 639 639 637 637 636 636 636 635 632 635 635 635 635 635 635 635 635 634 635 635 636 635 635 636 636 637 637 637 637 637 636 636 636 636 637 637 634 632 632 631 630 630 630 630 630 630 631 631 632 634 635 636 637 638 639 641 641 641 641 641 641 642 642 642 642 642 642 643 643 643 643 643 642 642 641 641 641 641 642 642 645 645 645 647 647 648 650 650 660 660 661 663 664 667 670 672 673 676 678 680 681 684 685 688 689 689 689 688 688 600 600 600 600 600 600 600 600 600 600 600
600 600 600 681 682 680 680 680 680 678 678 678 677 674 673 672 670 668 665 663 660 660 656 653 651 650 649 649 648 648 647 647 644 644 643 643 642 641 641 641 639 638 637 637 635 635 635 634 632 634 635 635 635 634 635 635 634 634 635 635 635 634 635 636 636 636 636 636 636 637 637 636 636 635 635 634 634 632 632 630 630 630 629 630 630 630 631 631 632 634 636 637 639 639 639 641 641 641 641 641 641 642 642 642 642 642 642 643 643 643 643 643 642 642 642 642 641 642 642 643 645 645 647 647 648 649 649 655 660 661 663 664 664 667 670 672 672 676 680 680 681 684 686 688 689 689 689 688 688 600 600 600 600 600 600 600 600 600 600 600
600 600 600 681 682 682 680 680 680 680 680 680 678 674 672 672 669 668 667 663 661 661 658 653 651 649 649 648 648 647 647 645 643 643 642 642 641 641 641 641 639 638 637 636 635 635 635 635 634 635 635 635 635 635 635 635 634 634 635 635 636 635 635 636 636 636 636 636 636 637 636 636 636 635 635 634 632 632 632 630 629 628 628 629 629 629 630 631 632 634 636 638 639 639 641 641 641 642 642 642 642 642 642 642 642 642 642 643 643 643 643 644 643 643 643 643 642 642 644 645 645 645 647 648 648 650 651 655 656 659 663 664 665 667 670 672 673 676 676 680 681 681 686 688 689 691 691 689 600 600 600 600 600 600 600 600 600 600 600 600
600 600 600 682 681 682 682 682 681 681 681 681 680 676 673 672 669 668 667 664 661 661 659 651 650 649 649 648 648 647 647 645 643 642 642 642 641 639 639 639 638 638 637 636 636 636 636 635 634 635 635 634 634 634 634 634 634 634 634 635 635 635 635 636 636 636 636 636 636 637 636 636 636 636 635 634 634 634 634 627 627 628 627 628 628 628 629 631 632 634 636 638 639 639 641 641 642 642 642 642 642 642 642 642 642 642 642 643 643 644 644 644 644 644 644 644 643 643 645 645 647 647 649 649 650 650 653 655 656 663 665 665 667 668 670 672 673 674 677 678 680 681 689 689 691 692 692 692 692 692 695 600 600 600 600 600 600 600 600 600
600 600 600 600 682 682 682 681 682 681 681 682 681 681 672 672 669 668 667 664 661 661 659 650 649 649 648 648 647 647 645 645 643 642 641 641 639 639 639 638 638 637 637 635 635 635 635 635 634 634 634 634 634 634 634 634 634 634 634 635 635 634 635 635 636 636 636 636 636 636 636 635 635 635 635 632 632 631 631 627 625 627 625 627 627 628 628 629 632 635 637 638 639 639 641 641 642 642 641 642 642 641 641 641 641 641 642 642 642 643 644 644 644 644 644 644 645 645 645 645 647 647 648 649 650 651 653 655 658 663 664 665 667 668 670 670 673 674 677 677 680 681 689 689 691 692 692 692 692 692 695 696 600 600 600 600 600 600 600 600
600 600 600 600 682 682 682 682 682 682 682 682 682 682 682 667 667 667 665 664 661 661 651 650 649 649 648 648 647 647 645 644 641 641 638 637 637 637 637 637 637 636 636 635 635 635 634 634 634 634 632 632 632 632 632 632 632 632 632 634 634 634 634 635 636 636 636 636 636 636 636 635 634 634 632 631 630 630 629 625 624 625 625 627 627 628 628 628 629 634 636 637 639 639 641 641 641 642 641 641 641 641 641 641 641 641 642 642 642 643 644 644 644 644 644 644 645 645 645 645 647 647 648 649 650 650 651 651 653 663 664 665 667 668 669 670 672 673 676 678 681 681 689 691 692 693 693 695 693 696 696 698 600 600 600 600 600 600 600 600
600 600 600 600 600 684 684 684 684 682 682 682 682 682 682 0 664 664 663 661 661 660 655 653 649 648 647 647 645 645 643 643 639 638 637 637 637 637 637 637 636 636 636 635 634 634 634 634 632 634 632 632 632 632 632 632 632 632 632 634 634 634 635 635 636 636 635 636 636 636 635 635 634 634 632 631 631 629 629 625 624 625 625 625 627 627 627 628 628 632 635 636 638 639 639 641 641 641 641 641 641 641 639 639 641 641 641 642 642 642 643 643 643 644 644 644 644 645 645 645 647 647 648 650 650 650 651 653 653 663 664 665 667 668 670 672 673 673 677 680 681 682 684 691 693 693 695 695 695 696 696 698 600 600 600 600 600 600 600 600
600 600 600 600 600 684 684 682 682 682 682 682 682 682 682 0 664 664 664 663 661 660 660 648 648 648 647 645 644 643 643 642 638 637 637 637 637 637 637 636 636 636 636 635 635 634 634 634 632 632 632 632 632 632 632 632 632 632 632 634 634 634 635 635 636 636 635 636 636 636 635 634 632 632 631 631 629 628 627 624 624 624 624 624 625 625 625 627 628 631 634 636 637 638 639 639 641 641 641 641 641 639 639 639 641 641 641 642 643 643 643 643 643 643 643 644 644 645 645 647 647 647 649 650 650 651 653 653 660 665 665 667 667 668 670 672 673 674 676 680 681 682 685 691 695 695 696 696 696 698 696 600 600 600 600 600 600 600 600 600
600 600 600 600 600 600 684 684 682 682 682 682 682 681 600 600 600 663 663 663 660 660 658 648 648 648 645 644 644 643 643 642 638 637 636 636 636 636 636 636 636 636 636 635 635 634 634 634 632 632 632 631 631 632 632 632 632 632 632 634 634 634 635 635 636 636 635 635 635 635 634 631 631 630 630 629 628 627 625 623 623 623 623 623 623 624 624 625 627 629 634 635 636 637 638 639 641 641 641 641 641 639 639 639 641 641 641 641 642 642 643 643 643 643 643 644 643 645 645 645 647 648 649 650 650 651 653 653 660 661 667 667 667 668 670 672 673 674 676 680 681 682 685 686 696 696 696 696 698 698 698 600 600 600 600 600 600 600 600 600
600 600 600 600 600 600 684 684 682 682 682 682 682 681 681 680 680 656 656 656 660 660 658 648 648 648 645 644 643 643 642 642 637 637 636 636 636 636 636 636 636 635 635 635 635 634 634 632 632 632 631 631 631 631 632 632 632 632 632 634 634 634 635 635 636 636 635 635 635 635 631 630 630 630 628 627 625 625 624 623 622 622 622 623 623 623 623 624 625 629 632 635 636 637 637 639 639 639 641 641 639 639 639 639 641 641 641 641 642 642 642 642 642 643 643 644 643 645 645 645 648 648 649 650 650 650 653 660 660 661 664 665 667 667 670 672 673 673 674 678 681 682 685 688 695 695 696 696 696 600 600 600 600 600 600 600 600 600 600 600
600 600 600 600 600 685 684 684 684 682 682 682 681 681 680 680 680 656 656 656 658 658 656 654 648 648 644 644 643 642 642 641 637 637 636 636 636 636 636 636 635 635 635 635 634 634 634 632 632 632 632 631 632 632 632 632 634 632 632 634 634 634 634 635 636 636 635 635 635 634 630 630 629 629 627 625 624 624 623 622 622 621 622 622 622 623 622 623 624 628 629 634 635 636 637 638 639 639 639 639 639 639 639 639 639 641 641 641 641 642 642 642 642 643 643 644 644 645 645 645 647 647 649 650 650 650 655 658 660 661 663 664 667 667 670 672 672 672 673 674 680 682 685 688 695 695 695 696 696 600 600 600 600 600 600 600 600 600 600 600
600 600 600 600 600 600 685 684 682 682 682 682 681 681 680 680 655 655 656 659 659 659 658 656 645 645 644 643 643 642 642 639 637 637 636 636 636 636 636 635 635 635 635 635 634 634 634 634 634 632 632 632 632 632 634 634 634 634 634 634 634 634 635 635 636 636 635 635 634 632 631 629 628 628 625 624 623 623 622 622 621 621 621 621 622 622 622 622 624 628 629 632 635 635 636 637 638 639 639 641 639 639 639 639 641 641 641 641 641 641 641 642 642 643 644 644 643 645 645 645 647 647 649 649 649 650 655 658 660 661 661 664 665 667 670 672 672 673 674 673 673 685 685 696 696 695 695 600 600 600 600 600 600 600 600 600 600 600 600 600
600 600 600 600 600 600 600 684 682 682 682 682 681 681 681 0 661 661 661 661 660 660 658 644 644 644 643 643 643 642 642 641 637 637 636 636 636 636 635 635 635 634 634 634 634 634 634 634 634 632 632 632 632 634 634 634 635 635 634 635 635 635 635 636 636 636 634 634 632 631 628 628 628 627 624 623 623 622 622 621 620 620 620 620 621 621 621 622 623 628 629 632 634 635 636 636 637 639 639 641 639 639 639 641 639 639 639 641 641 641 641 642 642 643 643 643 643 644 645 645 645 647 648 648 649 650 655 656 659 659 661 661 665 667 672 673 673 673 674 674 674 674 696 698 698 693 600 600 600 600 600 600 600 600 600 600 600 600 600 600
600 600 600 600 600 600 600 684 681 682 681 681 680 680 680 661 661 661 661 661 660 660 659 644 644 644 644 643 643 642 642 641 638 637 637 637 636 636 635 634 635 634 634 634 634 634 634 632 632 632 634 634 634 635 635 635 636 635 635 635 635 635 635 636 636 636 634 634 634 634 628 628 627 625 623 622 621 621 620 620 619 619 619 619 620 620 620 621 623 629 629 631 632 634 635 636 637 638 639 641 641 641 641 641 639 639 639 639 641 641 641 641 642 642 642 643 643 644 644 647 647 647 649 649 650 651 654 655 658 659 660 661 664 667 672 673 673 673 676 676 676 680 698 698 699 699 600 600 600 600 600 600 600 600 600 600 600 600 600 600
600 600 600 600 600 600 600 600 680 682 681 681 681 681 681 0 661 661 660 660 660 660 659 644 644 644 643 643 643 642 642 641 638 638 637 637 636 636 635 635 635 635 634 634 634 634 634 634 634 634 635 635 635 636 636 636 636 636 635 635 635 635 635 635 635 634 632 632 632 628 628 625 625 623 622 621 621 620 620 619 619 619 619 619 619 619 620 620 622 623 627 629 631 632 634 635 636 637 639 641 641 641 641 641 639 639 639 639 639 641 641 641 642 642 642 642 643 643 645 645 647 647 648 648 649 650 653 654 656 658 658 661 664 667 670 673 673 673 676 676 680 0 698 699 700 600 600 600 600 600 600 600 600 600 600 600 600 600 600 600
600 600 600 600 600 600 600 600 600 684 684 682 681 681 681 0 661 661 660 660 660 659 658 654 650 648 645 644 643 643 642 642 639 638 638 637 637 636 636 635 635 635 634 634 634 635 634 634 635 635 635 635 635 636 636 636 636 635 635 636 635 635 635 635 634 634 632 632 632 629 629 625 624 623 621 621 620 620 619 619 618 618 618 618 619 619 619 620 621 622 627 629 631 632 634 634 635 636 638 641 641 641 641 641 641 641 639 639 639 641 641 641 642 642 642 642 643 644 645 645 647 647 648 648 649 649 651 654 655 656 658 661 664 667 670 672 673 673 676 676 680 0 699 699 700 600 600 600 600 600 600 600 600 600 600 600 600 600 600 600
600 600 600 600 600 600 600 600 600 600 600 600 600 600 600 600 663 663 661 661 660 660 659 654 650 648 645 644 644 643 642 642 639 639 638 638 637 637 636 636 636 635 635 635 635 635 635 635 635 635 636 636 635 636 636 636 636 635 635 635 635 635 635 634 634 634 632 631 631 629 628 625 623 622 621 620 619 619 619 619 618 618 618 618 618 619 619 620 621 622 627 628 631 632 632 634 635 635 638 641 641 641 641 641 641 641 641 641 641 641 641 642 642 642 642 642 643 644 645 645 645 647 647 648 648 649 651 653 654 655 658 661 664 668 670 672 673 673 674 677 680 0 0 699 700 600 600 600 600 600 600 600 600 600 600 600 600 600 600 600
600 600 600 600 600 600 600 600 600 600 600 600 600 600 600 600 663 663 661 660 660 660 658 655 650 647 645 644 644 643 643 643 641 641 639 639 638 638 637 636 636 636 635 635 635 636 635 635 635 636 636 636 635 636 636 636 635 635 635 635 634 635 634 634 634 632 631 631 631 629 628 624 624 622 621 620 619 619 619 618 618 618 618 618 618 618 619 619 620 621 628 628 631 632 632 634 635 636 637 641 641 641 641 641 641 641 639 639 639 641 641 641 642 642 642 643 643 645 645 647 647 647 647 648 648 649 651 653 654 655 656 661 665 668 670 673 673 673 676 680 681 0 0 699 702 702 600 600 600 600 600 600 600 600 600 600 600 600 600 600
600 600 600 600 600 600 600 600 600 600 600 600 600 600 600 600 661 661 661 660 660 659 658 654 653 650 648 645 645 643 643 643 641 641 639 639 638 638 637 637 636 636 636 636 636 636 636 635 636 636 636 636 635 636 635 636 635 635 635 635 634 635 634 634 634 632 631 631 631 629 628 624 623 622 621 620 619 619 618 618 617 617 617 617 615 618 618 619 619 620 627 627 629 632 632 634 635 636 637 638 639 639 641 641 641 642 641 641 641 641 642 642 642 642 642 643 643 645 645 645 647 647 647 647 648 648 650 651 653 653 653 655 668 668 670 672 673 0 681 681 600 600 600 600 702 600 600 600 600 600 600 600 600 600 600 600 600 600 600 600
600 600 600 600 600 600 600 600 600 600 600 600 600 600 600 600 661 661 661 660 660 659 659 655 653 650 648 645 645 644 643 643 641 641 639 639 638 637 637 637 637 637 636 636 636 636 636 636 636 636 636 636 636 636 635 635 634 634 634 634 634 634 634 634 632 632 631 631 631 629 628 624 623 621 620 619 619 618 618 617 615 614 614 614 614 615 618 618 619 620 623 627 628 632 632 634 635 636 637 638 638 639 641 641 642 643 644 641 642 642 642 642 642 642 642 643 643 645 647 647 647 647 647 648 648 649 650 651 653 654 655 655 668 668 669 672 672 600 600 600 600 600 600 700 702 702 600 600 600 600 600 600 600 600 600 600 600 600 600 600
600 600 600 600 600 600 600 600 600 600 600 600 600 600 600 600 661 661 660 660 659 659 659 655 653 651 648 647 647 645 644 644 642 641 641 639 639 638 638 638 637 637 637 637 636 637 636 636 636 636 636 636 635 635 635 635 634 634 634 634 634 634 632 632 632 631 631 630 630 629 628 624 623 621 620 619 619 618 618 617 615 614 614 614 614 615 618 619 619 620 623 624 628 631 632 634 635 636 637 637 638 639 641 641 642 643 643 641 642 642 642 642 642 642 642 643 643 645 645 647 647 647 647 647 648 648 650 651 653 653 655 655 669 669 669 672 672 600 600 600 600 600 600 702 703 600 600 600 600 600 600 600 600 600 600 600 600 600 600 600
600 600 600 600 600 600 600 600 600 600 600 600 600 600 600 600 663 663 661 661 659 659 659 654 653 650 649 647 647 645 645 644 642 642 641 639 638 638 637 637 637 637 637 637 636 637 636 636 636 637 636 636 635 635 635 634 634 634 634 634 632 632 632 632 631 631 630 630 629 629 628 624 622 620 619 618 618 618 617 615 614 614 614 614 614 614 617 617 619 620 622 623 627 630 631 632 635 635 637 637 637 638 641 641 642 643 644 643 643 643 642 642 642 642 643 643 645 645 645 647 647 647 647 647 648 648 650 651 653 654 655 655 670 670 670 672 673 600 600 600 600 600 703 703 703 600 600 600 600 600 600 600 600 600 600 600 600 600 600 600
600 600 600 600 600 600 600 600 600 600 600 600 600 600 600 600 600 600 661 661 659 659 659 655 653 651 649 648 647 647 645 644 642 642 641 641 639 639 638 638 638 637 637 637 637 637 636 636 636 636 636 635 635 634 634 634 632 634 634 634 632 632 632 632 631 631 630 630 629 629 627 625 621 620 619 618 618 617 615 614 614 614 614 614 614 614 615 617 618 619 621 622 627 628 629 632 635 636 637 637 637 638 641 641 642 643 643 643 644 644 643 643 643 643 645 645 644 645 645 645 647 647 647 648 648 649 650 651 653 654 655 0 0 672 672 672 673 600 600 600 600 600 600 600 705 600 600 600 600 600 600 600 600 600 600 600 600 600 600 600
600 600 600 600 600 600 600 600 600 600 600 600 600 600 600 600 600 600 600 660 660 660 658 655 654 651 650 648 648 647 645 645 642 642 641 641 639 639 639 638 638 637 637 637 637 636 636 636 636 636 636 635 635 634 634 634 634 634 634 634 632 632 632 631 631 630 630 629 629 629 627 624 619 618 618 617 615 614 614 613 613 613 613 613 613 614 614 615 615 617 619 621 625 627 627 631 634 635 637 637 637 638 639 641 642 642 643 643 644 644 644 643 643 643 644 644 644 645 645 645 647 647 648 648 649 649 650 653 653 655 656 656 670 670 670 672 673 600 600 600 600 600 703 703 705 705 600 600 600 600 600 600 600 600 600 600 600 600 600 600
600 600 600 600 600 600 600 600 600 600 600 600 600 600 600 600 600 600 661 660 660 660 658 656 655 653 651 649 648 647 647 645 643 642 642 641 639 639 639 638 637 637 637 637 636 636 636 636 636 636 635 634 634 634 634 632 632 634 634 634 632 632 632 632 631 631 630 630 630 630 627 619 618 617 615 615 614 614 613 613 613 613 613 613 613 613 614 614 615 617 620 622 623 624 627 631 632 634 637 637 637 638 639 641 641 642 643 643 644 644 644 644 644 644 644 644 645 647 647 647 647 647 648 649 649 650 651 653 654 655 656 656 672 672 672 672 673 600 600 600 600 600 703 703 705 705 706 600 600 600 600 600 600 600 600 600 600 600 600 600
600 600 600 600 600 600 600 600 600 600 600 600 600 600 600 600 600 600 663 661 661 661 659 658 655 653 651 649 648 648 647 647 643 642 642 641 641 641 641 639 638 638 637 637 636 636 636 636 635 635 635 634 634 634 632 632 632 634 634 632 632 632 632 631 631 630 630 630 629 629 618 618 615 614 614 614 613 613 613 613 613 613 613 613 613 613 613 614 614 615 619 621 622 624 627 629 634 635 637 637 638 638 639 639 641 642 642 642 643 643 644 644 644 644 645 645 645 647 647 647 648 648 649 649 650 651 651 653 655 656 658 658 670 672 672 672 673 600 600 600 600 702 702 703 703 705 600 600 600 600 600 600 600 600 600 600 600 600 600 600
600 600 600 600 600 600 600 600 600 600 600 600 600 600 600 600 600 600 664 663 663 663 660 658 656 653 651 650 649 648 648 647 644 642 642 641 641 641 641 641 639 638 637 636 636 635 636 635 635 635 634 634 634 632 632 632 632 632 632 632 632 632 632 631 631 630 630 630 629 629 618 615 615 614 614 613 613 612 612 612 612 612 613 613 613 613 613 614 614 615 619 621 622 623 625 630 632 634 637 638 638 639 638 639 639 641 642 642 643 643 644 644 644 644 645 645 645 647 647 647 648 649 649 650 650 651 653 654 655 656 658 658 670 670 670 672 672 600 600 600 600 600 703 703 705 706 600 600 600 600 600 600 600 600 600 600 600 600 600 600
600 600 600 600 600 600 600 600 600 600 600 600 600 600 600 600 600 669 665 664 663 663 659 658 656 654 653 651 650 649 648 647 644 643 642 642 641 641 641 641 641 639 637 637 636 635 636 635 635 634 634 634 634 632 632 632 632 632 632 632 632 632 632 632 631 630 630 630 628 628 618 617 615 614 614 613 612 612 612 612 611 612 613 613 613 613 613 613 614 614 617 620 622 622 622 632 632 634 637 637 638 639 638 638 639 641 641 641 643 643 644 644 645 644 645 647 647 647 647 647 649 650 650 650 651 653 654 655 656 658 659 660 0 670 670 600 600 600 600 600 600 600 703 703 705 600 600 600 600 600 600 600 600 600 600 600 600 600 600 600
600 600 600 600 600 600 600 600 600 600 600 600 600 600 600 600 600 670 667 664 663 663 660 658 658 654 653 651 650 649 648 648 645 643 642 642 642 642 642 642 641 641 638 637 636 636 636 635 635 634 634 634 634 632 632 632 632 632 632 632 632 632 632 632 632 631 631 631 618 618 618 617 615 613 613 612 611 611 611 612 611 612 612 612 612 612 613 613 614 614 617 619 621 600 600 600 634 635 637 637 638 638 638 638 639 639 641 641 643 643 644 644 645 645 645 647 647 647 647 649 649 650 651 651 653 654 655 655 656 658 659 663 664 600 600 600 600 600 600 600 600 600 600 600 600 600 600 600 600 600 600 600 600 600 600 600 600 600 600 600
600 600 600 600 600 600 600 600 600 600 600 600 600 600 600 600 673 670 668 665 664 664 659 658 656 654 651 650 650 649 648 648 645 644 643 642 642 642 642 642 641 639 638 637 636 636 636 635 635 634 634 634 634 632 632 632 632 632 632 632 632 632 632 631 632 632 632 632 0 618 618 617 614 613 612 612 612 611 612 611 611 611 612 611 612 612 612 613 614 614 617 619 600 600 600 600 634 635 637 638 638 638 638 638 639 639 641 641 642 643 643 644 644 645 645 647 647 648 649 650 650 651 651 653 654 654 655 656 656 658 660 663 663 663 600 600 600 600 600 600 600 600 600 600 600 600 600 600 600 600 600 600 600 600 600 600 600 600 600 600
600 600 600 600 600 600 600 600 600 600 600 600 600 600 600 673 672 670 669 667 665 665 660 658 658 654 651 650 649 649 648 648 647 645 643 642 642 642 642 642 641 641 638 637 636 636 636 635 634 634 634 634 634 632 632 632 632 632 632 632 632 632 632 631 631 631 624 622 622 622 618 614 614 612 612 611 611 611 611 611 610 611 612 611 612 612 612 613 613 614 615 618 600 600 600 600 600 636 637 637 638 638 638 638 638 639 639 641 642 642 643 644 645 645 645 647 647 649 649 650 650 651 651 653 654 654 656 656 658 659 660 665 600 600 600 600 600 600 600 600 600 600 600 600 600 600 600 600 600 600 600 600 600 600 600 600 600 600 600 600
600 600 600 600 600 600 600 600 600 600 600 600 600 600 600 673 673 672 672 668 665 665 660 658 656 654 653 651 650 649 649 648 647 645 644 643 643 642 642 642 642 641 638 637 636 636 635 635 634 634 634 634 634 632 632 632 632 632 632 632 632 632 632 631 631 624 624 622 622 622 618 615 613 612 612 611 611 610 610 610 610 610 611 611 611 611 611 613 613 614 619 619 600 600 600 600 600 636 637 637 637 637 638 638 638 639 639 641 642 643 644 645 645 645 647 647 647 649 649 650 651 651 653 654 655 655 656 658 659 661 663 665 668 600 600 600 600 600 600 600 600 600 600 600 600 600 600 600 600 600 600 600 600 600 600 600 600 600 600 600
600 600 600 600 600 600 600 600 600 600 600 600 600 600 678 674 673 672 672 668 665 665 661 658 658 654 653 651 650 649 648 648 647 645 644 643 643 642 642 642 642 641 638 637 637 636 636 635 635 634 634 634 634 632 632 632 634 632 632 632 632 632 632 630 630 624 624 623 622 619 619 617 613 611 612 611 611 610 611 611 610 610 611 611 611 611 611 612 613 613 600 600 600 600 600 600 600 638 636 637 637 637 638 639 641 641 641 641 642 642 644 644 645 645 647 647 647 649 650 650 651 653 654 655 655 655 658 658 659 661 661 664 665 600 600 600 600 600 600 600 600 600 600 600 600 600 600 600 600 600 600 600 600 600 600 600 600 600 600 600
600 600 600 600 600 600 600 600 600 600 600 600 600 600 678 674 674 673 672 669 667 667 664 659 659 655 653 650 649 649 649 648 647 647 645 644 644 644 643 642 642 641 638 637 637 636 636 636 635 635 634 634 634 632 632 632 632 632 632 634 634 634 634 634 629 623 623 623 622 621 621 611 611 611 612 611 611 610 611 611 610 610 611 610 611 611 611 612 612 613 600 600 600 600 600 600 600 600 600 636 637 637 641 641 641 641 641 641 642 642 643 644 644 645 647 647 647 649 650 650 651 653 654 655 655 656 658 659 659 661 661 600 600 600 600 600 600 600 600 600 600 600 600 600 600 600 600 600 600 600 600 600 600 600 600 600 600 600 600 600
600 600 600 600 600 600 600 600 600 600 600 600 684 682 682 677 674 673 672 669 668 667 661 661 659 656 653 651 650 649 648 648 647 647 645 644 644 644 643 643 642 641 638 637 637 636 636 636 635 635 634 632 632 632 632 632 634 634 634 635 635 635 635 635 628 623 623 622 622 621 621 621 611 611 612 611 611 611 611 611 610 610 611 610 610 610 610 611 612 613 600 600 600 600 600 600 600 600 600 636 637 637 641 641 641 641 641 641 642 641 643 644 644 645 645 647 647 649 649 650 651 653 655 656 656 656 659 659 660 660 660 0 674 674 674 677 600 600 600 600 600 600 600 600 600 600 600 600 600 600 600 600 600 600 600 600 600 600 600 600
600 600 600 600 600 600 600 600 600 600 600 600 600 680 678 678 674 672 672 669 668 667 663 661 661 658 654 651 650 650 649 648 647 647 645 645 645 644 643 643 642 641 638 637 637 636 636 635 635 635 634 634 634 632 634 634 634 634 635 635 636 636 636 636 627 624 623 623 622 622 622 622 611 611 613 611 611 611 611 611 610 610 611 610 610 611 610 612 612 612 600 600 600 600 600 600 600 600 600 600 637 639 641 641 641 641 641 641 642 642 643 644 644 645 647 647 647 649 649 650 651 654 655 656 658 658 660 660 661 661 0 672 672 674 674 677 600 600 600 600 600 600 600 600 600 600 600 600 600 600 600 600 600 600 600 600 600 600 600 600
600 600 600 600 600 600 600 600 600 600 600 600 682 680 678 678 677 673 672 669 668 667 663 661 660 660 655 653 651 650 649 649 648 647 647 645 645 644 643 643 642 641 638 637 637 636 636 635 635 635 634 634 634 634 634 634 634 635 635 636 636 635 636 636 629 624 623 623 623 622 622 622 612 612 612 611 611 611 611 611 611 611 612 611 611 611 611 612 612 612 600 600 600 600 600 600 600 600 600 600 637 639 641 641 641 641 641 641 642 642 644 645 645 647 647 647 647 649 649 650 651 653 656 658 659 659 660 661 661 661 0 670 670 673 673 600 600 600 600 600 600 600 600 600 600 600 600 600 600 600 600 600 600 600 600 600 600 600 600 600
600 600 600 600 600 600 600 600 600 600 600 600 682 678 678 678 677 674 673 670 668 665 661 661 661 659 655 653 651 651 649 648 648 647 645 645 645 644 643 643 642 641 638 638 637 636 636 635 635 635 635 634 634 634 634 634 634 635 635 636 636 635 636 635 635 625 624 624 623 623 623 600 600 600 611 0 611 611 610 611 611 611 612 612 612 611 611 612 612 600 600 600 600 600 600 600 600 600 600 641 639 639 641 641 641 641 641 639 642 642 644 644 645 645 647 647 648 648 649 650 653 656 658 659 659 660 660 661 661 663 0 670 670 670 600 600 600 600 600 600 600 600 600 600 600 600 600 600 600 600 600 600 600 600 600 600 600 600 600 600
600 600 600 600 600 600 600 600 600 600 600 600 600 677 677 678 677 673 672 670 669 667 663 661 660 660 654 653 651 651 650 649 648 647 647 645 645 645 644 643 642 642 639 638 637 637 636 635 636 635 635 634 634 634 635 635 635 635 635 636 636 636 636 635 632 632 624 624 624 624 624 625 0 628 0 0 612 612 611 612 611 612 612 612 0 612 611 612 600 600 600 600 600 600 600 600 600 600 600 641 641 639 641 641 641 641 641 639 641 642 644 644 645 645 647 647 648 649 650 651 654 656 658 659 659 659 660 661 663 663 672 669 669 600 600 600 600 600 600 600 600 600 600 600 600 600 600 600 600 600 600 600 600 600 600 600 600 600 600 600
600 600 600 600 600 600 600 600 600 600 600 600 600 678 677 678 677 673 672 670 669 667 661 661 660 660 655 653 651 651 650 649 648 647 647 645 645 645 644 643 642 642 639 638 637 637 636 635 636 635 635 635 635 635 636 636 636 636 636 636 636 636 636 635 634 630 630 624 625 625 625 627 628 628 600 600 600 600 600 628 612 0 612 612 600 600 600 600 600 600 600 600 600 600 600 600 600 600 641 641 641 639 641 639 639 639 639 639 641 642 643 643 644 645 647 647 647 649 650 653 655 656 658 659 659 660 661 663 665 667 672 672 672 673 600 600 600 600 600 600 600 600 600 600 600 600 600 600 600 600 600 600 600 600 600 600 600 600 600 600
600 600 600 600 600 600 600 600 600 600 600 600 600 677 677 678 677 673 673 670 669 667 661 660 660 660 655 653 653 651 650 649 649 648 647 645 645 645 644 643 643 642 639 638 637 637 636 635 635 635 635 635 635 635 636 636 636 636 636 636 636 636 636 635 635 632 632 628 627 628 627 628 628 628 629 600 600 600 600 600 600 625 600 600 600 600 600 600 600 600 600 600 600 600 600 600 600 600 641 641 641 641 641 641 639 639 639 639 641 642 643 644 644 645 645 647 647 650 651 653 656 656 658 659 660 660 661 663 667 668 670 672 672 672 672 600 600 600 600 600 600 600 600 600 600 600 600 600 600 600 600 600 600 600 600 600 600 600 600 600
600 600 600 600 600 600 600 600 600 600 600 600 600 678 678 678 676 673 673 670 668 665 661 660 660 659 654 653 653 651 650 650 649 648 647 647 645 645 644 644 643 642 641 639 637 637 636 635 635 635 635 635 635 635 636 636 636 636 636 637 636 636 636 635 634 631 631 629 628 629 628 628 628 628 628 628 628 600 600 600 600 600 600 600 600 600 600 600 600 632 632 632 632 634 600 600 600 641 641 641 641 641 641 641 639 641 639 639 641 642 643 644 644 645 645 647 649 651 651 654 656 658 658 659 660 660 663 664 667 669 670 672 670 672 673 600 600 600 600 600 600 600 600 600 600 600 600 600 600 600 600 600 600 600 600 600 600 600 600 600
600 600 600 600 600 600 600 600 600 600 600 600 600 680 678 678 676 673 673 672 668 665 661 660 660 659 654 653 653 651 651 650 649 648 647 647 647 645 644 644 643 642 639 638 637 637 637 636 636 636 636 636 636 636 636 636 636 637 636 636 636 635 634 634 632 632 631 629 629 629 628 628 628 628 628 628 628 627 627 627 627 625 600 600 600 600 600 600 631 632 632 634 632 632 600 600 600 642 641 641 642 641 641 641 641 641 639 639 641 642 643 644 645 647 648 648 649 653 654 655 656 658 659 659 660 661 665 667 669 670 670 672 670 672 600 600 600 600 600 600 600 600 600 600 600 600 600 600 600 600 600 600 600 600 600 600 600 600 600 2021
600 600 600 600 600 600 600 600 600 600 600 600 600 678 678 676 674 673 673 672 669 667 661 660 659 658 656 654 653 651 651 650 648 648 647 647 647 645 645 644 644 643 641 638 638 637 637 637 636 636 636 636 636 636 636 636 636 637 636 636 636 635 634 634 634 632 631 630 630 629 628 628 628 628 628 627 627 627 627 627 627 625 625 625 625 627 627 628 629 632 632 632 632 634 634 639 639 641 641 641 642 641 641 641 641 641 641 641 641 642 643 644 644 645 645 650 650 654 655 656 656 658 659 659 660 661 665 667 669 669 670 670 670 672 600 600 600 600 600 600 600 600 600 600 600 600 600 600 600 600 600 600 600 600 600 600 600 600 2021 2021
600 600 600 600 600 600 600 600 600 600 600 600 600 600 600 676 674 673 673 672 669 668 661 660 660 659 656 655 654 653 651 650 648 648 647 647 645 645 644 644 643 642 639 638 638 637 637 637 636 636 636 636 636 636 636 637 637 637 636 636 636 635 634 634 634 632 631 631 630 630 629 628 628 628 628 627 627 627 625 625 625 625 625 625 625 627 628 628 628 631 632 632 632 634 636 639 639 641 641 641 642 642 641 641 641 641 641 639 641 642 643 644 645 647 647 648 650 653 655 656 656 658 659 659 660 661 664 665 668 669 669 670 669 600 600 600 600 600 600 600 600 600 600 600 600 600 600 600 600 600 600 600 600 600 600 600 600 600 2021 2021
600 600 600 600 600 600 600 600 600 600 600 600 600 600 600 677 674 674 673 672 669 668 663 660 660 659 658 656 655 653 651 651 648 648 647 645 645 645 644 643 643 642 641 639 638 638 638 637 637 636 636 636 636 636 637 637 637 637 636 636 635 634 632 632 632 631 631 630 630 630 629 628 628 628 628 627 627 627 627 627 627 625 625 627 627 627 628 628 628 629 632 632 632 634 636 638 639 639 641 641 642 642 642 641 641 641 641 641 642 642 643 645 647 647 648 648 649 653 655 656 658 659 659 660 661 661 664 665 668 669 669 670 600 600 600 600 600 600 600 600 600 600 600 600 600 600 600 600 600 600 600 600 600 600 600 600 600 600 2021 2033
600 600 600 600 600 600 600 600 600 600 600 600 600 600 600 677 676 674 673 672 670 668 663 661 661 659 658 656 654 654 653 651 648 648 647 645 645 645 643 643 642 642 641 639 639 638 638 637 637 636 636 636 636 636 636 636 637 637 636 636 635 634 632 632 632 631 630 630 630 629 628 627 627 627 627 627 627 627 625 625 627 625 625 625 627 627 628 628 628 629 632 632 632 634 636 637 638 639 641 641 642 642 642 642 642 641 641 641 642 643 644 645 647 648 648 649 650 653 655 655 656 658 659 660 660 661 664 665 668 669 668 600 600 600 600 600 600 600 600 600 600 600 600 600 600 600 600 600 600 600 600 600 600 600 600 600 600 600 2021 2021
600 600 600 600 600 600 600 600 600 600 600 600 600 600 600 600 676 673 672 672 670 669 664 661 661 659 658 656 655 654 653 651 648 647 647 645 645 645 643 643 642 642 641 639 639 638 638 638 637 637 636 636 636 636 636 636 637 637 636 636 635 632 632 631 631 631 630 630 629 629 628 627 627 627 627 627 625 627 625 625 625 625 625 625 627 627 627 628 628 629 631 632 632 632 635 636 637 638 641 641 641 641 642 641 641 641 641 641 642 642 644 645 647 648 649 649 650 653 654 655 656 659 659 660 661 661 664 665 600 600 600 600 600 600 600 600 600 600 600 600 600 600 600 600 600 600 600 600 600 600 600 600 600 600 600 600 600 2033 2021 2021
600 600 600 600 600 600 600 600 600 600 600 600 600 600 600 600 600 673 673 672 670 670 667 663 660 660 659 658 656 654 653 651 648 648 647 645 645 644 643 642 642 641 641 639 639 638 638 638 637 637 637 636 636 636 636 636 636 636 636 636 635 632 632 631 631 631 630 630 629 629 628 627 627 627 625 625 624 625 625 624 624 625 625 625 627 627 627 627 628 628 631 631 632 632 634 636 636 638 639 641 641 641 641 641 641 641 641 642 642 644 644 645 647 648 649 650 650 653 655 656 656 659 660 660 661 661 664 667 600 600 600 600 600 600 600 600 600 600 600 600 600 600 600 600 600 600 600 600 600 600 600 600 600 600 600 600 600 2021 2021 2021
600 600 600 600 600 600 600 600 600 600 600 600 600 600 600 600 600 674 673 672 672 670 667 663 661 661 659 658 656 655 653 653 649 648 648 645 645 644 643 642 642 641 641 639 639 638 638 638 638 637 637 637 637 637 637 637 637 636 636 636 635 632 632 631 631 631 630 630 629 629 628 627 627 627 625 625 624 625 624 624 625 625 625 625 625 627 627 627 627 628 629 630 631 631 632 634 635 637 639 641 641 641 641 642 642 642 642 642 643 643 644 645 645 647 648 649 649 653 655 655 658 659 660 660 661 661 664 600 600 600 600 600 600 600 600 600 600 600 600 600 600 600 600 600 600 600 600 600 600 600 600 600 600 600 600 600 2009 2021 2009 2021
600 600 600 600 600 600 600 600 600 600 600 600 600 600 600 600 600 674 673 672 670 670 667 663 661 661 659 658 656 655 653 653 649 648 647 645 644 643 642 642 642 641 641 641 639 639 638 638 638 638 637 637 637 637 637 636 637 636 636 636 635 632 632 631 631 630 630 629 629 628 627 627 627 625 625 624 624 624 624 624 624 624 624 624 625 625 627 625 627 628 629 630 630 631 632 634 635 637 639 641 641 642 642 642 642 642 643 643 644 645 645 645 645 647 648 649 649 651 654 655 656 658 659 660 661 661 664 600 600 600 600 600 600 600 600 600 600 600 600 600 600 600 600 600 600 600 600 600 600 600 600 600 600 600 600 600 2009 2021 2021 2021
600 600 600 600 600 600 600 600 600 600 600 600 600 600 600 600 600 600 600 672 670 669 667 663 661 661 659 658 656 655 654 653 649 648 647 647 645 643 643 642 642 641 641 641 641 639 639 639 639 638 638 637 637 637 637 636 636 636 636 635 632 632 631 631 630 630 630 629 629 628 627 625 624 624 624 623 623 623 624 623 624 624 624 624 624 624 627 627 627 627 628 629 629 630 631 632 634 635 636 639 641 641 641 642 642 642 643 644 644 645 645 645 645 647 647 649 650 651 654 655 656 658 659 661 661 663 600 600 600 600 600 600 600 600 600 600 600 600 600 600 600 600 600 600 600 600 600 600 600 600 600 600 600 600 600 600 2021 2033 2021 2033
600 600 600 600 600 600 600 600 600 600 600 600 600 600 600 600 600 600 600 672 670 670 667 664 663 660 659 658 655 654 653 651 649 648 648 647 645 644 643 643 642 642 641 641 641 639 639 641 641 639 638 638 638 637 637 636 636 636 636 635 634 632 631 630 630 629 629 629 628 627 625 624 624 623 623 623 623 623 623 623 623 623 623 623 623 624 625 625 625 627 628 628 628 628 629 631 634 635 636 639 641 641 641 642 642 642 643 644 644 645 645 645 645 645 647 648 650 651 654 655 656 658 659 661 663 664 600 600 600 600 600 600 600 600 600 600 600 600 600 600 600 600 600 600 600 600 600 600 600 600 600 600 600 600 600 600 2021 2033 2021 2033
600 600 600 600 600 600 600 600 600 600 600 600 600 600 600 600 600 600 600 673 672 672 668 664 663 660 660 658 656 654 654 653 649 648 648 647 645 645 643 643 642 642 641 641 641 641 639 641 641 641 639 638 638 637 637 636 636 636 635 635 634 631 631 630 630 629 628 627 625 625 624 623 624 623 623 623 623 623 623 622 622 623 623 623 623 623 625 625 625 627 627 628 628 628 629 631 632 634 636 638 639 641 641 642 642 642 644 645 645 645 645 645 645 647 647 648 650 651 651 655 656 658 659 663 664 664 600 600 600 600 600 600 600 600 600 600 600 600 600 600 600 600 600 600 600 600 600 600 600 600 600 600 600 600 600 2033 2021 2033 2021 2033
600 600 600 600 600 600 600 600 600 600 600 600 600 600 600 600 600 600 600 600 600 672 667 664 663 661 660 660 658 655 654 653 650 649 648 647 645 645 644 643 643 642 642 642 641 641 641 641 641 641 639 639 639 638 637 636 636 636 635 634 632 631 631 630 630 629 628 628 627 625 624 623 624 623 623 623 622 622 622 622 622 623 623 623 623 623 625 625 625 627 627 628 628 628 631 632 634 635 636 638 639 641 641 642 642 643 644 645 645 645 645 645 645 645 647 648 649 650 654 655 656 658 659 663 665 665 669 670 600 600 600 600 600 600 600 600 600 600 600 600 600 600 600 600 600 600 600 600 600 600 600 600 600 600 600 2033 2021 2021 2033 2033
600 600 600 600 600 600 600 600 600 600 600 600 600 600 600 600 600 600 600 600 600 600 667 664 663 661 660 660 658 656 655 653 650 649 648 647 645 645 644 643 643 643 642 642 642 641 641 642 642 641 641 639 639 638 637 636 636 636 635 634 632 631 630 630 630 628 628 628 625 625 624 624 624 624 623 622 622 622 622 621 621 622 623 623 623 624 625 625 625 627 627 628 628 628 631 632 634 635 636 639 639 641 642 642 642 643 644 645 644 645 645 645 645 645 647 648 648 651 653 654 656 658 659 663 665 667 668 600 600 600 600 600 600 600 600 600 600 600 600 600 600 600 600 600 600 600 600 600 600 600 600 600 600 600 600 2045 2033 2033 2033 2033
600 600 600 600 600 600 600 600 600 600 600 600 600 600 600 600 600 600 600 600 600 668 667 664 663 660 660 660 658 655 654 654 650 649 648 647 645 645 644 644 643 643 642 642 642 642 642 642 642 642 641 639 639 638 637 636 635 635 634 632 631 630 630 630 629 628 628 627 625 625 625 624 624 624 623 623 622 622 622 621 621 622 623 623 623 624 625 625 625 627 627 628 628 628 631 632 632 635 636 638 639 641 641 642 643 644 645 645 644 645 645 645 645 647 647 648 649 653 654 654 656 656 658 659 665 667 670 670 600 600 600 600 600 600 600 600 600 600 600 600 600 600 600 600 600 600 600 600 600 600 600 600 600 600 600 2033 2033 2033 2033 2033
600 600 600 600 600 600 600 600 600 600 600 600 600 600 600 600 600 600 600 600 600 670 667 665 663 661 661 661 658 655 655 654 651 651 648 647 647 645 645 644 644 643 642 642 642 641 642 642 642 642 641 639 638 638 637 636 635 635 634 632 632 632 631 631 631 628 628 628 628 627 627 625 625 625 623 623 622 622 622 622 621 622 623 623 623 624 625 625 625 625 627 627 628 628 629 632 632 635 635 638 639 642 642 643 643 644 645 645 644 645 645 645 645 647 648 649 650 653 654 654 655 656 658 658 667 668 600 600 600 600 600 600 600 600 600 600 600 600 600 600 600 600 600 600 600 600 600 600 600 600 600 600 600 600 600 2033 2033 2033 2033 2033
600 600 600 600 600 600 600 600 600 600 600 600 600 600 600 600 600 600 600 600 600 600 665 667 663 661 661 660 660 656 655 654 651 651 648 647 645 645 645 645 645 644 642 642 642 642 642 643 642 642 641 639 637 637 636 636 635 635 634 632 631 631 631 631 631 628 628 629 628 627 627 625 625 625 624 623 621 622 622 621 620 622 622 623 623 624 625 625 625 627 627 627 628 628 630 631 632 635 636 639 641 642 642 643 644 644 645 645 645 645 645 645 647 647 648 649 650 653 655 654 655 656 658 658 667 668 600 600 600 600 600 600 600 600 600 600 600 600 600 600 600 600 600 600 600 600 600 600 600 600 600 600 600 600 2057 2045 2033 2045 2033 2033
600 600 600 600 600 600 600 600 600 600 600 600 600 600 600 600 600 600 600 600 600 600 600 667 664 661 661 661 659 656 655 654 651 650 650 648 647 645 645 645 645 645 644 644 643 643 643 643 643 642 641 639 637 637 636 636 635 635 634 634 632 632 631 631 630 630 629 629 628 627 627 625 625 625 624 624 623 622 623 621 621 622 622 623 623 625 627 627 627 627 628 628 628 628 630 631 632 635 636 638 641 642 642 644 644 645 645 647 647 647 648 647 647 648 651 651 653 653 655 655 656 656 658 658 667 600 600 600 600 600 600 600 600 600 600 600 600 600 600 600 600 600 600 600 600 600 600 600 600 600 600 600 600 600 2057 2045 2033 2045 2033 2033
600 600 600 600 600 600 600 600 600 600 600 600 600 600 600 600 600 600 600 600 600 600 600 600 664 661 661 661 659 655 654 654 651 650 648 648 647 645 645 645 645 645 644 644 643 643 643 643 642 642 639 639 637 637 637 636 636 635 634 634 632 632 631 631 630 630 630 629 629 628 628 627 625 625 624 625 624 623 623 622 622 623 623 625 627 627 627 627 628 628 628 628 629 629 629 632 634 635 635 639 639 641 643 645 645 647 647 648 648 648 648 649 650 650 651 651 653 654 655 655 656 656 658 658 600 600 600 600 600 600 600 600 600 600 600 600 600 600 600 600 600 600 600 600 600 600 600 600 600 600 600 600 600 600 2057 2045 2045 2045 2045 2033
600 600 600 600 600 600 600 600 600 600 600 600 600 600 600 600 600 600 600 600 600 600 600 600 664 661 661 661 659 656 655 654 651 650 650 648 647 647 645 645 645 645 644 644 644 643 643 643 642 642 642 641 641 638 638 637 637 637 636 635 634 632 632 631 631 630 630 630 630 629 629 628 628 628 627 627 627 624 624 624 623 627 625 627 627 627 628 628 628 628 629 628 629 629 631 632 634 635 635 639 641 641 643 643 644 647 647 649 650 650 649 650 650 651 653 653 654 654 656 656 658 658 600 600 600 600 600 600 600 600 600 600 600 600 600 600 600 600 600 600 600 600 600 600 600 600 600 600 600 600 600 600 600 2057 2057 2045 2045 2045 2045 2045
600 600 600 600 600 600 600 600 600 600 600 600 600 600 600 600 600 600 600 600 600 600 600 600 600 663 661 661 659 656 655 654 650 650 650 649 648 647 647 647 647 645 644 644 643 643 643 643 642 642 642 642 641 638 638 638 637 638 636 635 635 632 632 631 631 631 630 630 630 630 629 629 629 629 628 628 628 625 625 625 624 627 627 627 628 628 628 629 629 629 629 629 630 631 632 632 634 635 636 639 641 642 643 643 644 647 648 649 650 650 650 650 651 651 653 654 654 654 656 656 658 661 664 665 600 600 600 600 600 600 600 600 600 600 600 600 600 600 600 600 600 600 600 600 600 600 600 600 600 600 600 600 2057 2057 2057 2045 2045 2045 2045 2045
600 600 600 600 600 600 600 600 600 600 600 600 600 600 600 600 600 600 600 600 600 600 600 600 600 600 660 660 656 656 655 654 651 650 650 649 648 647 647 647 647 645 644 644 643 643 643 642 642 642 642 642 642 641 639 639 639 639 638 637 637 634 634 632 632 631 631 631 631 630 630 630 629 630 629 629 628 627 627 627 628 628 628 628 628 629 629 630 630 630 630 631 632 632 632 634 635 636 636 638 641 642 643 644 645 647 648 649 650 650 650 650 651 651 653 654 654 654 656 656 658 661 664 665 600 600 600 600 600 600 600 600 600 600 600 600 600 600 600 600 600 600 600 600 600 600 600 600 600 600 600 600 2057 2057 2057 2045 2045 2045 2045 2045
600 600 600 600 600 600 600 600 600 600 600 600 600 600 600 600 600 600 600 600 600 600 600 600 600 600 660 660 658 656 656 655 651 651 651 650 649 648 647 647 647 645 644 643 643 643 643 643 643 642 642 642 642 641 641 641 641 642 641 638 638 636 634 632 632 632 631 631 631 630 630 630 629 629 628 628 628 627 627 627 628 628 628 628 629 629 631 631 631 632 632 632 634 634 634 632 634 636 636 639 641 641 642 644 645 647 648 649 650 650 650 650 651 651 654 654 655 655 656 658 661 661 665 667 0 0 670 600 600 600 600 600 600 600 600 600 600 600 600 600 600 600 600 600 600 600 600 600 600 600 600 2057 2057 2057 2057 2057 2057 2057 2057 2045
600 600 600 600 600 600 600 600 600 600 600 600 600 600 600 600 600 600 600 600 600 600 600 600 600 600 600 659 656 656 655 655 651 651 651 650 649 649 647 647 647 645 644 643 643 643 643 643 643 643 643 643 643 642 642 642 642 642 642 639 639 636 634 634 632 632 632 631 631 631 630 630 629 629 628 629 628 627 628 628 628 628 628 629 629 630 631 632 632 634 636 636 637 637 635 635 636 637 637 639 641 642 643 645 645 647 648 649 650 650 650 650 651 651 653 654 655 655 656 658 661 661 664 667 667 669 669 600 600 600 600 600 600 600 600 600 600 600 600 600 600 600 600 600 600 600 600 600 600 600 600 2057 2057 2057 2057 2057 2057 2057 2057 2045
600 600 600 600 600 600 600 600 600 600 600 600 600 600 600 600 600 600 600 600 600 600 600 600 600 600 600 658 656 656 655 655 651 651 650 650 649 648 647 647 647 645 644 644 644 643 643 643 643 643 643 643 643 642 642 642 642 643 643 641 639 636 635 635 634 632 632 632 631 631 630 630 630 630 629 629 629 627 628 628 628 628 629 629 630 631 632 632 634 636 636 636 637 637 636 636 637 638 639 641 642 642 644 645 645 647 648 648 649 650 650 650 651 651 653 654 655 655 658 659 659 663 665 665 670 669 670 600 600 600 600 600 600 600 600 600 600 600 600 600 600 600 600 600 600 600 600 600 600 600 2057 2057 2057 2057 2057 2057 2057 2057 2057 2045
3324 600 600 600 600 600 600 600 600 600 600 600 600 600 600 600 600 600 600 600 600 600 600 600 600 600 600 659 658 658 656 655 651 651 651 650 649 649 648 647 647 645 644 644 644 643 644 644 644 644 644 643 643 643 643 642 642 642 642 639 638 636 634 634 634 634 632 632 632 631 630 630 629 629 629 628 628 628 628 628 629 629 629 629 629 631 632 632 634 636 637 636 636 639 639 639 639 639 641 642 642 643 644 645 645 647 648 648 650 650 650 650 651 651 654 654 655 655 658 659 663 664 667 670 670 670 670 600 600 600 600 600 600 600 600 600 600 600 600 600 600 600 600 600 600 600 600 600 600 600 2057 2069 2057 2057 2057 2057 2057 2045 2045 2033
3293 3293 600 600 600 600 600 600 600 600 600 600 600 600 600 600 600 600 600 600 600 600 600 600 600 600 600 659 658 658 656 655 653 651 651 650 650 649 648 648 647 645 645 644 644 644 644 644 644 644 644 643 643 643 643 642 642 642 641 639 638 636 634 635 634 632 632 632 632 631 631 630 630 630 628 628 628 628 628 628 629 629 629 629 629 631 632 632 634 636 637 637 638 639 639 639 639 641 642 642 643 643 644 645 647 647 648 648 650 650 651 651 651 653 654 654 655 656 659 659 661 663 667 670 670 670 672 600 600 600 600 600 600 600 600 600 600 600 600 600 600 600 600 600 600 600 600 600 600 2057 2057 2069 2069 2057 2057 2057 2045 2045 2045 2033
3293 600 600 600 600 600 600 600 600 600 600 600 600 600 600 600 600 600 600 600 600 600 600 600 600 600 600 659 658 658 658 656 653 653 651 651 650 650 649 648 647 647 645 644 644 644 644 644 644 644 644 644 643 643 643 642 642 642 641 638 637 636 634 634 634 632 632 631 632 631 630 628 628 627 627 627 627 627 627 628 629 628 629 629 629 631 632 632 636 636 637 637 638 639 641 641 642 642 643 644 644 645 645 647 647 648 649 649 650 650 651 651 653 653 653 655 655 656 658 659 668 668 669 672 672 672 670 600 600 600 600 600 600 600 600 600 600 600 600 600 600 600 600 600 600 600 600 600 600 2045 2057 2069 2069 2057 2057 2057 2057 2045 2045 2045
3293 600 600 600 600 600 600 600 600 600 600 600 600 600 600 600 600 600 600 600 600 600 600 600 600 600 600 600 659 658 658 656 655 651 651 651 650 650 649 649 648 647 645 644 644 645 644 644 645 645 644 643 643 643 643 642 642 641 639 637 637 634 634 632 632 632 631 631 631 630 628 627 627 627 627 627 627 627 627 628 628 628 628 628 629 630 631 632 632 636 637 637 637 639 641 642 642 643 643 644 645 645 645 647 648 649 649 649 650 651 651 653 653 653 654 655 655 656 659 663 665 667 669 670 670 670 600 600 600 600 600 600 600 600 600 600 600 600 600 600 600 600 600 600 600 600 600 600 2045 2045 2057 2069 2069 2057 2057 2057 2057 2045 2045 2045
3324 600 600 600 600 600 600 600 600 600 600 600 600 600 600 600 600 600 600 600 600 600 600 600 600 600 600 600 660 661 659 659 656 651 651 650 650 650 650 649 648 648 647 647 647 647 645 645 645 645 645 644 643 644 643 643 642 641 639 637 637 635 634 634 632 632 631 630 630 630 629 627 627 627 627 628 627 627 627 628 628 628 628 628 628 629 631 632 632 635 636 637 637 639 641 642 642 643 643 645 645 645 647 647 648 649 649 649 650 650 651 651 651 653 654 655 655 656 661 663 665 667 669 670 670 670 600 600 600 600 600 600 600 600 600 600 600 600 600 600 600 600 600 600 600 600 600 600 2057 2045 2057 2069 2069 2057 2057 2057 2057 2045 2045 2021
3324 3324 600 600 600 600 600 600 600 600 600 600 600 600 600 600 600 600 600 600 600 600 600 600 600 600 600 600 661 663 663 660 656 651 651 650 650 650 650 649 649 648 647 647 647 647 647 647 647 647 645 645 644 644 644 644 643 642 639 638 637 635 634 634 632 632 631 630 630 630 628 627 627 627 627 627 627 627 627 628 628 628 627 628 628 629 631 632 632 635 636 637 637 638 641 642 642 643 644 645 645 647 647 648 649 649 649 649 650 651 651 653 653 654 654 655 655 656 661 664 667 668 670 670 672 672 600 600 600 600 600 600 600 600 600 600 600 600 600 600 600 600 600 600 600 600 600 600 2057 2045 2057 2057 2057 2057 2057 2045 2057 2045 2045 2021
600 600 600 600 600 600 600 600 600 600 600 600 600 600 600 600 600 600 600 600 600 600 600 600 600 600 600 600 663 664 663 661 658 653 651 650 650 650 650 650 649 648 647 647 647 647 647 647 647 647 647 647 645 645 644 644 643 642 638 637 636 635 634 634 632 632 631 630 630 629 628 627 627 627 627 627 627 627 627 628 628 628 628 629 629 630 631 632 632 634 636 637 637 638 641 642 643 643 644 647 647 647 648 649 650 650 650 650 651 651 653 654 654 654 655 656 656 658 661 663 667 668 670 672 672 672 600 600 600 600 600 600 600 600 600 600 600 600 600 600 600 600 600 600 600 600 600 600 2057 2057 2057 2057 2057 2057 2057 2057 2057 2045 2045 2045
600 600 600 600 600 600 600 600 600 600 600 600 600 600 600 600 600 600 600 600 600 600 600 600 600 600 600 600 600 664 664 661 660 656 653 651 651 651 651 650 650 649 648 648 647 648 647 648 648 648 647 647 645 645 644 643 643 642 639 638 637 635 634 634 632 632 631 630 630 629 628 628 628 628 628 628 627 628 628 628 628 628 628 629 630 631 631 632 632 634 636 637 638 638 641 642 643 643 644 647 647 648 649 650 651 651 651 651 653 653 653 654 654 655 655 658 656 659 665 667 669 672 672 672 672 600 600 600 600 600 600 600 600 600 600 600 600 600 600 600 600 600 600 600 600 600 600 600 2057 2045 2057 2057 2057 2057 2057 2057 2057 2057 2057 2045
600 600 600 600 600 600 600 600 600 600 600 600 600 600 600 600 600 600 600 600 600 600 600 600 600 600 600 600 600 665 665 664 660 660 655 653 651 651 651 651 650 649 648 648 648 648 648 648 649 649 648 647 647 645 644 644 643 642 639 638 637 636 635 634 634 632 631 630 630 629 628 628 628 628 628 628 627 628 628 628 628 628 629 629 631 631 632 632 632 635 636 637 638 638 639 642 643 643 644 647 647 648 649 650 651 651 651 651 654 653 654 655 655 656 656 659 660 664 665 667 669 670 670 672 672 600 600 600 600 600 600 600 600 600 600 600 600 600 600 600 600 600 600 600 600 600 600 600 2057 2045 2045 2057 2057 2057 2057 2057 2057 2057 2057 2045
600 600 600 600 600 600 600 600 600 600 600 600 600 600 600 600 600 600 600 600 600 600 600 600 600 600 600 600 600 600 665 664 661 660 660 655 653 653 651 651 651 650 649 648 648 648 648 648 649 649 648 648 647 647 644 643 643 642 641 639 638 636 635 635 634 632 632 631 631 631 629 628 628 628 628 628 628 628 628 628 628 629 629 629 631 631 632 632 634 635 636 637 638 638 639 641 642 644 644 647 648 648 649 650 651 651 651 651 654 654 655 655 656 656 656 661 661 665 665 667 668 669 670 672 600 600 600 600 600 600 600 600 600 600 600 600 600 600 600 600 600 600 600 600 600 600 600 600 2069 2045 2057 2057 2069 2057 2057 2057 2057 2057 2057 2045
600 600 600 600 600 600 600 600 600 600 600 600 600 600 600 600 600 600 600 600 600 600 600 600 600 600 600 600 600 600 667 664 661 660 660 658 655 654 653 653 651 650 649 649 648 648 648 648 649 649 649 648 647 647 645 644 644 643 642 639 638 637 636 635 635 634 632 631 631 630 629 629 629 629 629 629 629 629 628 628 628 629 629 629 631 631 632 632 634 636 636 637 638 639 639 641 642 644 645 648 649 649 650 651 653 653 651 653 654 654 655 655 656 658 658 661 661 665 665 667 668 669 670 672 600 600 600 600 600 600 600 600 600 600 600 600 600 600 600 600 600 600 600 600 600 600 600 600 2069 2057 2069 2069 2069 2057 2057 2057 2057 2057 2045 2033
600 600 600 600 600 600 600 600 600 600 600 600 600 600 600 600 600 809 811 811 811 811 813 600 600 600 600 600 600 600 600 664 663 660 660 659 656 655 654 654 653 651 650 649 648 648 648 648 649 649 649 648 648 647 647 645 644 643 642 641 638 637 637 636 636 635 635 632 632 631 631 630 630 630 630 630 630 629 629 629 628 629 629 631 631 632 632 634 635 636 637 637 639 639 641 642 643 644 647 649 650 650 651 653 653 653 653 655 656 656 658 658 656 659 660 661 663 667 668 669 670 670 672 674 600 600 600 600 600 600 600 600 600 600 600 600 600 600 600 600 600 600 600 600 600 600 600 600 600 2057 2069 2057 2057 2057 2057 2057 2057 2045 2045 2033
600 600 600 600 600 600 600 600 600 600 600 600 600 600 600 600 600 809 809 809 811 811 813 600 600 600 600 600 600 600 600 664 663 660 660 658 656 655 655 654 654 653 650 649 649 648 649 649 649 649 649 649 648 647 645 644 644 643 642 641 639 638 638 638 637 637 636 635 635 634 632 634 634 634 634 634 634 634 632 634 631 632 632 634 634 635 635 636 636 637 638 639 641 641 642 642 645 647 648 650 650 651 651 653 654 654 655 656 655 658 659 656 656 659 661 661 664 667 668 670 670 672 672 600 600 600 600 600 600 600 600 600 600 600 600 600 600 600 600 600 600 600 600 600 600 600 600 600 600 2057 2069 2069 2057 2057 2057 2057 2057 2045 2045 2045
600 600 600 600 600 600 600 600 600 600 600 600 600 600 600 600 803 803 807 807 807 811 600 600 600 600 600 600 600 600 600 600 664 661 660 660 659 658 656 656 655 655 653 651 651 650 650 650 650 649 649 648 648 647 647 645 644 643 642 642 641 641 639 639 638 638 637 636 636 634 634 634 634 634 635 635 635 635 636 636 635 635 634 634 636 636 636 636 636 637 638 639 641 641 642 643 647 649 649 651 651 653 653 654 655 655 655 655 656 660 660 660 661 661 661 665 665 668 669 670 670 672 600 600 600 600 600 600 600 600 600 600 600 600 600 600 600 600 600 600 600 600 600 600 600 600 600 600 600 2057 2057 2057 2057 2057 2057 2057 2045 2045 2045 2045
600 600 600 600 600 600 600 600 600 600 600 600 600 600 600 801 803 803 803 803 803 783 600 600 600 600 600 600 600 600 600 600 665 664 661 660 660 658 658 656 656 656 654 654 651 651 650 650 650 650 649 649 648 648 647 645 645 644 644 642 642 641 641 639 638 638 637 636 636 635 635 635 634 635 635 636 636 636 637 637 636 636 636 636 636 636 636 637 637 637 638 641 641 642 643 645 647 649 650 651 653 653 653 654 655 655 656 656 660 661 661 661 661 663 664 665 665 667 669 670 670 600 600 600 600 600 600 600 600 600 600 842 840 600 600 600 600 600 600 600 600 600 600 600 600 600 600 600 600 600 2057 2057 2057 2057 2057 2045 2045 2045 2033 2033
600 600 600 600 600 600 600 600 600 600 600 600 796 796 798 798 799 799 801 785 785 783 785 787 600 600 600 600 600 600 600 600 600 600 663 661 660 660 659 658 658 656 655 655 653 653 651 651 651 650 650 649 649 648 648 647 645 645 645 644 643 642 641 641 639 638 638 637 637 637 636 635 635 636 636 636 636 637 637 637 636 637 636 636 637 636 636 637 638 638 641 642 642 643 647 648 649 650 650 651 653 653 653 655 655 655 656 658 660 661 661 661 661 663 664 665 665 669 670 670 672 600 600 600 600 600 600 600 600 600 600 842 840 842 600 600 600 600 600 600 600 600 600 600 600 600 600 600 600 600 600 600 2045 2045 2045 2045 2045 2045 2045 2045
600 600 600 600 600 600 600 600 600 600 600 796 796 796 796 798 798 798 799 785 783 783 783 783 600 600 600 600 600 600 600 600 600 600 664 663 661 661 660 660 659 658 656 655 653 653 653 653 653 650 650 649 649 648 648 648 647 645 645 644 644 642 642 641 639 639 638 638 638 637 637 636 636 637 637 637 637 637 637 637 637 638 637 637 637 638 637 638 639 639 642 643 643 644 647 648 649 650 650 651 651 651 653 655 655 659 660 660 661 661 661 663 663 663 664 665 667 669 670 672 600 600 600 600 600 600 600 600 842 842 842 842 840 840 840 840 840 842 600 600 600 600 600 859 859 0 857 0 857 600 600 600 600 600 600 600 2045 2045 2045 2033
600 600 600 600 600 600 600 600 600 600 600 794 794 794 796 796 796 796 796 785 783 783 783 783 600 600 600 600 600 600 600 600 600 600 600 664 663 663 663 660 660 659 656 655 653 654 654 653 653 650 650 650 649 648 648 648 647 647 647 645 644 643 643 642 642 641 641 639 638 637 637 636 636 637 637 637 637 637 637 638 638 639 638 638 638 639 639 639 639 639 642 643 645 644 648 648 649 650 651 651 653 653 655 656 658 658 660 661 661 663 664 664 664 664 665 665 667 669 600 600 600 600 600 600 600 600 600 842 842 842 842 840 840 840 840 838 840 842 600 600 600 600 857 857 857 857 857 855 857 600 600 600 600 600 600 600 600 2045 2045 2033
600 600 600 600 600 600 600 600 600 790 792 792 792 794 794 794 790 788 788 785 783 783 783 783 600 600 600 600 600 600 600 600 600 600 600 600 665 665 665 664 664 659 658 656 655 655 654 653 651 650 650 650 649 649 649 649 647 647 647 645 645 644 644 642 642 642 642 641 639 638 638 637 637 637 637 637 638 638 638 638 638 638 638 638 639 639 639 641 641 641 642 643 647 644 648 649 649 650 651 651 653 653 656 656 656 659 661 661 663 664 664 665 665 665 665 667 667 600 600 600 600 600 600 600 600 600 600 840 842 842 842 840 840 840 840 838 840 842 600 600 600 600 857 857 857 857 857 853 855 855 600 600 600 600 600 600 600 600 600 600
600 600 600 600 600 600 600 600 788 788 790 790 790 792 792 790 788 788 787 785 783 783 781 600 600 600 600 600 600 600 600 600 600 600 600 600 665 665 667 665 661 660 658 656 655 655 655 654 653 650 650 650 650 649 649 649 648 647 647 647 645 644 644 643 642 643 642 641 639 638 638 637 637 637 637 638 638 638 638 638 638 638 638 638 639 641 641 641 642 641 645 647 645 645 649 650 650 650 651 651 653 653 656 656 656 659 661 661 663 664 665 665 665 667 667 668 668 600 600 600 600 600 600 600 834 840 838 840 840 840 842 840 838 838 840 838 840 840 600 600 600 600 855 855 855 855 855 853 855 853 853 600 600 600 600 600 600 600 600 844
600 600 600 600 600 600 788 788 788 788 790 790 790 790 790 790 788 787 787 785 781 781 781 600 600 600 600 600 600 600 600 600 600 600 600 600 667 667 667 667 665 660 660 660 654 655 655 654 653 651 651 650 650 649 649 649 648 647 647 647 647 645 645 644 643 643 643 641 641 639 639 638 637 637 638 639 639 639 639 639 639 639 639 641 642 642 643 642 643 643 647 645 647 649 649 650 650 651 651 655 655 656 656 658 658 659 661 661 664 665 667 667 667 668 668 669 600 600 600 600 600 600 832 832 834 834 836 836 838 840 840 838 836 836 836 836 838 840 842 849 849 853 853 853 851 851 851 851 853 853 851 600 600 600 600 840 844 842 844 844
600 600 600 600 787 787 787 788 788 788 790 790 790 790 788 788 787 785 783 781 780 780 600 600 600 600 600 600 600 600 600 600 716 716 716 716 668 667 667 667 667 664 663 663 655 655 655 654 653 651 651 650 650 650 650 650 649 648 648 647 647 645 645 645 644 644 643 642 641 641 641 638 638 638 638 639 639 639 639 641 641 641 642 642 642 643 644 644 644 644 647 648 649 650 650 650 651 651 653 656 656 658 658 659 660 661 664 665 667 667 668 669 669 670 669 600 600 600 600 600 600 600 600 830 832 834 836 836 836 836 838 836 834 834 834 836 836 838 838 842 846 849 849 849 849 849 849 849 851 851 849 846 0 840 840 840 840 842 842 842
600 600 600 787 787 785 785 787 787 788 788 788 788 788 787 787 785 785 783 781 780 778 774 600 600 600 600 600 600 600 600 600 716 716 716 715 715 669 668 669 669 664 663 660 658 656 656 655 654 653 651 650 650 649 649 649 648 648 648 648 647 647 645 645 644 644 644 643 642 641 641 641 639 638 639 639 641 641 641 641 641 641 641 642 642 643 644 644 645 645 647 649 649 650 650 651 651 653 653 656 658 658 659 659 660 663 664 667 667 668 669 669 670 600 600 600 600 600 600 600 600 600 824 828 830 832 834 834 836 836 836 836 832 832 832 834 836 836 838 840 842 844 846 844 846 846 846 849 849 846 844 844 840 840 840 840 840 842 842 842
787 785 783 783 785 783 785 783 783 787 787 787 787 785 785 783 783 781 781 776 774 771 771 769 767 766 0 0 746 746 746 670 670 672 672 715 715 669 669 669 670 667 664 661 661 658 656 655 654 653 653 651 650 650 650 649 648 648 648 648 647 647 645 645 644 644 643 643 642 641 641 641 639 639 639 641 641 641 639 641 641 642 642 642 643 643 644 644 645 645 647 649 650 651 651 651 653 654 655 658 658 658 659 659 661 661 667 668 669 670 670 670 600 600 600 600 600 600 600 600 600 600 824 828 830 832 834 834 834 834 836 832 830 828 830 830 832 832 836 838 840 842 844 842 842 842 842 844 844 842 840 832 838 838 838 838 840 840 840 842
785 783 783 783 783 783 783 783 783 785 785 785 785 783 783 781 781 781 780 774 771 771 769 767 766 764 0 0 744 744 744 743 670 672 719 715 715 715 713 713 709 708 708 708 656 656 656 655 654 653 653 651 650 650 649 649 649 648 648 648 647 647 645 645 644 644 643 643 642 642 642 641 641 639 641 641 641 641 639 641 641 641 642 642 642 643 644 644 645 645 648 649 650 651 651 653 654 655 655 659 659 660 661 663 664 665 668 669 670 670 600 600 600 600 600 600 600 600 811 815 818 818 822 826 828 830 834 834 834 832 832 832 828 826 828 826 828 830 834 836 838 842 842 840 840 840 840 840 840 836 838 834 836 836 836 838 838 840 840 840
785 781 781 781 783 781 781 783 783 783 783 783 783 783 781 781 781 780 780 774 771 771 769 767 766 764 764 744 744 744 739 739 739 672 721 715 716 716 713 712 709 708 706 706 706 655 655 655 655 654 653 653 651 650 649 649 649 649 648 648 647 647 645 645 644 643 643 643 642 642 642 642 641 641 641 641 641 641 639 641 641 642 642 642 643 644 644 645 645 647 648 649 650 651 653 654 655 656 656 659 660 661 661 663 663 665 668 669 600 600 600 600 600 600 600 805 807 809 809 811 816 818 820 824 828 830 832 832 834 832 832 830 826 822 824 822 826 828 832 834 834 840 840 840 840 840 838 838 836 834 834 832 832 834 836 836 838 838 838 838
781 781 780 780 780 780 780 781 781 781 783 783 783 781 781 780 780 778 776 773 773 769 769 767 766 766 762 746 746 744 739 738 733 733 722 721 721 719 716 713 709 708 706 706 706 655 655 655 655 655 654 654 651 650 649 649 649 648 648 648 647 647 645 645 644 644 643 643 642 642 642 642 642 642 641 641 641 641 641 641 641 642 643 643 643 644 644 645 645 647 648 650 651 653 654 653 655 656 656 660 661 661 661 663 664 667 0 670 600 600 600 600 600 600 803 803 805 807 809 809 815 815 820 824 826 828 832 832 832 832 830 830 824 820 822 822 826 828 830 832 832 836 836 838 836 836 836 836 834 832 832 832 832 832 832 834 838 836 836 838
